# .PCD v0.7 - Point Cloud Data file format
VERSION 0.7
FIELDS x y z
SIZE 4 4 4
TYPE F F F
COUNT 1 1 1
WIDTH 1174
HEIGHT 1
VIEWPOINT 0 0 0 1 0 0 0
POINTS 1174
DATA ascii
0.9946 0.074419998 0.01025
0.40470001 0.080140002 -0.0026380001
0.69450003 -0.1354 0.3044
0.55049998 0.16949999 0.3019
0.85720003 0.1716 0.26539999
0.7015 0.07485 -0.02513
0.91320002 -0.18709999 0.1147
0.51440001 -0.1989 0.1026
0.66240001 0.035890002 0.2044
0.71100003 -0.1937 0.1028
0.88120002 -0.1312 0.30019999
0.54689997 0.1238 0.1007
0.8258 0.122 0.097149998
0.54680002 -0.1539 0.2448
0.69999999 0.17129999 0.2617
0.8531 0.075099997 -0.03077
0.79790002 -0.16140001 0.1981
0.65990001 -0.095810004 0.16500001
0.67809999 0.1354 0.1277
0.54689997 0.074929997 -0.016070001
0.92070001 0.1274 0.1716
0.602 0.1296 0.20739999
0.7766 0.12630001 0.19509999
0.93159997 -0.1391 0.2032
0.60149997 -0.1736 0.1416
0.80949998 -0.1936 0.1043
0.91329998 0.087099999 0.063960001
0.49259999 0.13330001 0.22149999
0.62339997 0.085709997 0.06027
0.78750002 -0.12980001 0.3127
0.45390001 0.1183 0.089890003
0.70539999 -0.16069999 0.2079
0.73280001 0.090400003 0.072520003
0.66000003 0.016340001 0.1169
0.60149997 -0.1363 0.30939999
0.77109998 0.15549999 0.30129999
0.50319999 -0.16150001 0.1732
0.7766 0.079499997 -0.0065890001
0.63440001 -0.13500001 0.23999999
0.62349999 0.1515 0.29010001
0.8477 0.15800001 0.1919
0.93059999 0.073760003 -0.02922
0.5086 0.083070002 0.052530002
0.85869998 -0.1587 0.1592
0.47580001 0.073030002 -0.01044
0.49219999 0.1446 0.1512
0.82590002 -0.12720001 0.25319999
0.69450003 0.12630001 0.19509999
0.60210001 0.1399 0.13959999
0.76560003 0.1093 0.12970001
0.7493 -0.16599999 0.1499
0.76010001 -0.1461 0.2545
0.66729999 -0.16869999 0.1479
0.95069999 0.1091 0.114
0.8531 0.093359999 0.03844
0.54689997 0.15719999 0.18790001
0.88639998 0.107 0.1214
0.66000003 -0.03898 0.1939
0.63990003 0.073150001 -0.016650001
0.49770001 0.1719 0.26710001
0.57980001 -0.1507 0.19499999
0.75520003 0.16769999 0.2317
0.81489998 0.13779999 0.2387
0.67809999 0.089139998 0.02689
0.65630001 0.16590001 0.2235
0.54149997 -0.12549999 0.2949
0.44299999 0.093359999 0.03844
0.56879997 0.098700002 0.049660001
0.88599998 -0.12819999 0.24349999
0.96780002 -0.1802 0.1294
0.57419997 0.14229999 0.2554
0.66000003 0.070859998 0.1002
0.8258 0.1172 0.16060001
0.65880001 0.090680003 0.21780001
0.88090003 0.1353 0.22920001
0.78740001 0.090219997 0.072059996
0.54699999 -0.17649999 0.1391
0.62889999 -0.1981 0.1033
0.63429999 -0.1682 0.1893
0.97189999 0.1063 0.065710001
0.66289997 -0.030230001 0.1402
0.62889999 0.1221 0.09708
0.72189999 0.1454 0.1552
0.63990003 0.1193 0.1683
0.7274 0.07553 0.0207
0.4923 -0.1441 0.22059999
0.44839999 0.1149 0.1515
0.59609997 0.083439998 0.01036
0.86400002 -0.1911 0.1073
0.72189999 0.1582 0.30329999
0.69999999 -0.1293 0.2563
0.66720003 0.17110001 0.29859999
0.89139998 0.083760001 0.01029
0.8143 0.17219999 0.28740001
0.55779999 0.1137 0.14650001
0.86409998 0.1429 0.14749999
0.84249997 -0.1543 0.2181
0.90780002 -0.1715 0.15880001
0.7985 -0.1684 0.14229999
0.70550001 0.1029 0.1081
0.57999998 -0.19769999 0.1084
0.9461 0.090410002 0.0308
0.59060001 -0.1472 0.26629999
0.46849999 0.16949999 0.3019
0.50910002 0.1058 0.1175
0.66170001 0.1079 0.067929998
0.88630003 -0.15989999 0.1962
0.875 0.1133 0.0788
0.72229999 0.16060001 0.20100001
0.47029999 0.15800001 0.1919
0.82029998 0.081079997 0.001335
0.6613 -0.1336 0.1943
0.949 -0.15549999 0.16060001
0.75480002 -0.1909 0.1049
0.44839999 0.16680001 0.2288
0.53049999 0.14229999 0.2554
0.76560003 0.1472 0.15899999
0.79839998 0.1365 0.1318
0.63429999 -0.1419 0.28279999
0.97289997 0.076499999 -0.026799999
0.84219998 -0.1229 0.3143
0.4594 0.14569999 0.2683
0.79890001 0.16060001 0.20100001
0.89139998 0.15449999 0.18009999
0.60159999 0.1715 0.26159999
0.50300002 -0.18719999 0.142
0.76560003 0.093659997 0.0383
0.91329998 0.1181 0.089979999
0.66900003 -0.1978 0.1012
0.64529997 0.1709 0.2617
0.53049999 0.1219 0.1785
0.78789997 -0.1345 0.22830001
0.4156 0.1062 0.064219996
0.57419997 0.16599999 0.2235
0.59060001 0.1529 0.1752
0.66710001 -0.15620001 0.2262
0.47580001 0.104 0.060800001
0.73830003 0.123 0.1824
0.76010001 -0.15970001 0.2066
0.47580001 -0.1974 0.1059
0.53600001 -0.1531 0.1917
0.50309998 0.084959999 0.0144
0.71090001 -0.1681 0.147
0.59060001 0.1661 0.30379999
0.73970002 0.073250003 -0.021740001
0.7274 0.14470001 0.26449999
0.51429999 0.16769999 0.2318
0.51410002 -0.13500001 0.2509
0.5359 0.1082 0.067749999
0.58560002 0.107 0.1214
0.5122 0.16949999 0.3019
0.47080001 0.107 0.1214
0.69999999 0.104 0.06081
0.4375 0.1321 0.1203
0.79299998 -0.123 0.2766
0.59600002 -0.1576 0.22750001
0.75470001 0.1168 0.086120002
0.8258 0.1041 0.060690001
0.66170001 0.1472 0.15899999
0.62889999 0.1531 0.1752
0.83670002 -0.1797 0.1401
0.55830002 0.1296 0.20739999
0.69999999 0.1389 0.2427
0.5359 0.089139998 0.02689
0.9188 0.1107 0.1347
0.73280001 0.13349999 0.1241
0.73820001 -0.1399 0.28099999
0.514 -0.1443 0.28479999
0.67809999 0.1162 0.1567
0.43759999 0.073019996 -0.01088
0.56879997 0.09471 0.083959997
0.63990003 0.077430002 0.03115
0.5632 -0.1763 0.16949999
0.8477 0.124 0.18629999
0.8531 0.1093 0.12970001
0.67269999 0.073080003 -0.0065600001
0.59060001 0.1193 0.1683
0.60159999 0.1094 0.071690001
0.98940003 0.091789998 0.038929999
0.45390001 0.14749999 0.15899999
0.85860002 -0.1434 0.2559
0.80440003 0.1058 0.1175
0.77649999 -0.1698 0.1735
0.78750002 0.1716 0.26710001
0.66250002 -0.09691 0.19840001
0.8477 0.097439997 0.091619998
0.81739998 0.074670002 -0.03128
0.62339997 0.16509999 0.2183
0.53049999 0.17219999 0.27250001
0.65890002 0.1234 0.2233
0.8258 0.1691 0.2402
0.72229999 0.1679 0.2357
0.74919999 0.1726 0.28349999
0.76059997 0.1353 0.22920001
0.91259998 -0.1468 0.2383
0.73320001 -0.13240001 0.24150001
0.52499998 0.1445 0.1513
0.80980003 0.1296 0.20739999
0.76020002 -0.1202 0.2949
0.87 0.1684 0.23559999
0.82029998 0.14910001 0.1637
0.60159999 0.13779999 0.2387
0.49219999 0.14229999 0.2554
0.56330001 0.083769999 0.01029
0.90060002 -0.13240001 0.2719
0.68900001 -0.1726 0.17129999
0.48660001 -0.1683 0.20029999
0.89139998 0.09533 0.04214
0.62900001 -0.16599999 0.1559
0.66140002 -0.12729999 0.1605
0.63990003 0.1339 0.1241
0.5104 0.07361 -0.01387
0.74919999 0.1556 0.1842
0.89139998 0.125 0.1901
0.62889999 0.1436 0.26050001
0.46489999 -0.1795 0.13689999
0.4594 0.124 0.18629999
0.60699999 0.1004 0.1004
0.77109998 0.1172 0.16060001
0.83679998 -0.1507 0.1789
0.71649998 -0.153 0.1807
0.9569 -0.18799999 0.1023
0.85869998 -0.1199 0.28389999
0.92799997 0.1426 0.1468
0.57969999 -0.1362 0.2404
0.83130002 0.134 0.1239
0.81480002 -0.1332 0.3012
0.71640003 0.1162 0.1567
0.8204 -0.13519999 0.2237
0.77670002 -0.1868 0.1246
0.81489998 0.14669999 0.27219999
0.89170003 0.1628 0.2086
0.86409998 -0.1411 0.20209999
0.4867 0.1172 0.16060001
0.5966 0.079329997 0.03954
0.57419997 0.134 0.1239
0.68360001 0.1638 0.2132
0.70050001 0.080339998 0.04335
0.66259998 -0.067900002 0.19589999
0.54140002 -0.1969 0.1131
0.49219999 0.12540001 0.1046
0.67570001 -0.1882 0.1275
0.96799999 0.080770001 0.001447
0.87220001 -0.1779 0.1428
0.67809999 0.1436 0.26050001
0.62940001 0.1275 0.1997
0.66170001 0.12630001 0.19509999
0.54979998 -0.1445 0.215
0.77160001 0.12729999 0.1086
0.92460001 -0.1682 0.1362
0.62889999 -0.13169999 0.31470001
0.722 -0.1217 0.29519999
0.74379998 0.1029 0.1081
0.45539999 0.074199997 0.01074
0.95160002 0.087099999 0.063950002
0.66109997 0.0083950004 0.19939999
0.57419997 0.1716 0.26710001
0.47029999 0.13779999 0.2387
0.61799997 -0.1301 0.26199999
0.48679999 0.1681 0.2362
0.78750002 0.1524 0.1754
0.75470001 0.074759997 0.01534
0.59609997 0.1494 0.2823
0.79299998 0.091770001 0.034680001
0.74919999 -0.1675 0.1824
0.7001 -0.1365 0.2296
0.53600001 0.1355 0.1276
0.60699999 -0.1675 0.1934
0.75470001 0.1436 0.26050001
0.86409998 0.084579997 0.01434
0.5255 0.1353 0.22920001
0.46489999 -0.16230001 0.1736
0.92970002 0.074759997 0.01534
0.81489998 0.097439997 0.091619998
0.51950002 0.15719999 0.18790001
0.90789998 -0.14669999 0.1859
0.79009998 0.074830003 -0.030230001
0.94059998 0.1186 0.089780003
0.62339997 0.083760001 0.01029
0.44299999 0.1582 0.1919
0.48120001 -0.182 0.1586
0.51410002 0.1149 0.082549997
0.59609997 0.12549999 0.1045
0.74379998 0.1162 0.1567
0.54140002 0.1494 0.2823
0.54140002 0.083099999 0.0526
0.44850001 0.087099999 0.063950002
0.69450003 0.1189 0.08963
0.67320001 -0.14910001 0.2511
0.53039998 -0.16060001 0.2226
0.8477 -0.1312 0.2353
0.78799999 0.13330001 0.22149999
0.79839998 0.1525 0.29390001
0.71090001 0.080930002 0.001433
0.70539999 -0.1867 0.12980001
0.63440001 0.097439997 0.091619998
0.73869997 0.080339998 0.04335
0.4594 0.1725 0.278
0.52490002 -0.1743 0.1785
0.57969999 0.073080003 -0.0065660002
0.65630001 0.083439998 0.01036
0.57969999 0.14470001 0.1512
0.52499998 -0.13789999 0.31
0.54689997 0.14910001 0.1637
0.9188 0.1318 0.1204
0.74919999 0.171 0.25619999
0.82020003 -0.1389 0.2771
0.65079999 0.1525 0.294
0.80949998 -0.1719 0.1647
0.88050002 0.078680001 -0.01182
0.64529997 -0.1472 0.2608
0.49250001 -0.1512 0.2597
0.92430001 -0.154 0.16590001
0.60159999 0.15970001 0.19660001
0.77100003 -0.1532 0.2281
0.7687 -0.1391 0.28099999
0.58520001 -0.1245 0.2947
0.66720003 0.16949999 0.2456
0.8915 -0.1891 0.1027
0.53039998 -0.1485 0.2667
0.875 -0.123 0.2656
0.7493 -0.1842 0.13339999
0.88090003 0.12909999 0.1123
0.9188 0.073080003 -0.0065600001
0.68910003 -0.1238 0.2836
0.875 0.084370002 0.056499999
0.51959997 -0.17129999 0.15009999
0.92970002 0.1017 0.1042
0.65630001 0.1137 0.14650001
0.4156 0.086110003 0.01811
0.79040003 -0.12809999 0.25319999
0.55779999 0.1017 0.1042
0.4867 0.1017 0.1042
0.68409997 0.13429999 0.2254
0.8423 -0.1832 0.1135
0.88639998 0.1402 0.13940001
0.8477 0.1485 0.1639
0.54149997 -0.16429999 0.1646
0.51950002 -0.1927 0.1257
0.8477 0.085709997 0.06027
0.6613 0.047839999 0.1059
0.69999999 0.1486 0.1638
0.90240002 0.1172 0.16060001
0.9242 0.1077 0.067950003
0.86979997 -0.133 0.227
0.63990003 0.1023 0.057089999
0.74400002 0.1417 0.1432
0.65619999 -0.17470001 0.16769999
0.76560003 0.096089996 0.087789997
0.57419997 0.1525 0.294
0.65079999 0.14569999 0.2683
0.7766 -0.1652 0.1497
0.64539999 -0.17290001 0.141
0.88599998 -0.16140001 0.1515
0.69999999 0.1093 0.12970001
0.55260003 -0.13339999 0.25389999
0.44299999 0.1093 0.12970001
0.59890002 -0.1279 0.27599999
0.72189999 0.097439997 0.091619998
0.4648 0.099079996 0.096450001
0.79839998 -0.1479 0.2446
0.94169998 -0.1567 0.1925
0.83939999 0.17039999 0.2798
0.93519998 -0.18179999 0.1118
0.68910003 -0.1904 0.1092
0.53640002 0.1275 0.1997
0.91000003 -0.1268 0.24860001
0.81470001 -0.1822 0.1348
0.7985 -0.1409 0.2075
0.4594 0.1515 0.29010001
0.65979999 0.052700002 0.2192
0.67809999 0.1107 0.1347
0.6124 -0.14120001 0.2881
0.9192 0.080339998 0.04335
0.44839999 0.1705 0.2509
0.48269999 0.074199997 0.01074
0.51410002 0.13680001 0.13160001
0.77109998 -0.14740001 0.19159999
0.8915 -0.1339 0.222
0.57419997 0.124 0.1007
0.71630001 -0.14139999 0.27720001
0.43200001 0.117 0.08602
0.90780002 0.1029 0.1081
0.71640003 0.1219 0.1785
0.8039 0.1182 0.1645
0.60750002 0.1081 0.1252
0.57429999 -0.1837 0.1247
0.662 0.0039169998 0.13519999
0.83670002 -0.1701 0.1681
0.69450003 0.07553 0.0207
0.57969999 0.1118 0.075010002
0.59609997 0.1689 0.2403
0.4923 -0.138 0.2421
0.74379998 0.1661 0.30379999
0.76569998 -0.12639999 0.2624
0.4544 0.13330001 0.22149999
0.67809999 -0.1354 0.23469999
0.49759999 -0.1946 0.1221
0.67259997 0.1187 0.08969
0.70550001 0.14470001 0.26449999
0.71090001 -0.1505 0.24250001
0.53049999 0.080310002 -0.0026459999
0.86409998 0.1389 0.2427
0.62339997 0.17129999 0.2617
0.70050001 0.168 0.2357
0.58020002 0.1296 0.20739999
0.68910003 -0.17380001 0.13680001
0.81480002 -0.15710001 0.2111
0.5636 -0.15710001 0.1797
0.55830002 0.079329997 0.03954
0.79339999 -0.1513 0.1795
0.89780003 0.1429 0.2145
0.68379998 -0.161 0.2085
0.4434 0.1399 0.13950001
0.52509999 -0.1397 0.233
0.6591 -0.051339999 0.1418
0.54729998 0.1629 0.2086
0.65670002 0.1399 0.13950001
0.88059998 0.1533 0.2464
0.78200001 0.1723 0.294
0.62889999 0.1461 0.1551
0.72780001 0.107 0.1214
0.74970001 0.1275 0.1997
0.61250001 0.09691 0.045979999
0.65069997 -0.1603 0.21349999
0.57410002 -0.1629 0.2112
0.48159999 -0.15989999 0.2291
0.71640003 0.1383 0.1364
0.48679999 -0.12729999 0.2911
0.72780001 0.1275 0.1997
0.59060001 0.125 0.1901
0.76569998 -0.1338 0.23289999
0.49770001 -0.15090001 0.2008
0.67809999 0.097050004 0.045910001
0.7274 -0.1736 0.13609999
0.90780002 0.087449998 0.022050001
0.47029999 0.14309999 0.14749999
0.47029999 0.091870002 0.07632
0.88050002 0.076420002 0.02596
0.78750002 0.148 0.27720001
0.53049999 -0.1293 0.27810001
0.86409998 0.0933 0.080159999
0.74379998 0.148 0.27720001
0.87510002 -0.15350001 0.17020001
0.60189998 -0.1646 0.15989999
0.79839998 0.1471 0.15899999
0.50309998 -0.1595 0.22840001
0.71090001 0.087099999 0.063960001
0.46489999 0.083099999 0.0526
0.66170001 0.1193 0.1683
0.78200001 0.1026 0.056940001
0.54729998 0.1417 0.1432
0.65079999 0.081569999 0.047669999
0.9023 -0.1649 0.17910001
0.55809999 -0.1391 0.2326
0.95160002 0.099100001 0.096479997
0.63999999 -0.19220001 0.1191
0.72180003 -0.17479999 0.16230001
0.64529997 0.17110001 0.29859999
0.97390002 0.079329997 0.039530002
0.91890001 -0.1346 0.21780001
0.60759997 -0.14920001 0.25659999
0.56330001 0.1724 0.2834
0.82609999 -0.16500001 0.1476
0.88590002 0.1203 0.093479998
0.86409998 0.1062 0.064219996
0.8258 -0.1174 0.3053
0.59899998 -0.1939 0.1064
0.70550001 -0.1202 0.3096
0.9174 0.1464 0.1741
0.51950002 0.098839998 0.04958
0.8531 0.1193 0.1683
0.9461 0.098860003 0.04961
0.92409998 -0.1577 0.20039999
0.74059999 0.073469996 0.002268
0.85839999 -0.1167 0.30289999
0.51990002 -0.1654 0.20720001
0.85299999 -0.1496 0.2335
0.63990003 -0.15710001 0.17470001
0.57419997 -0.16949999 0.18970001
0.73290002 -0.1445 0.26320001
0.5255 0.079329997 0.03954
0.76050001 -0.1542 0.17479999
0.82740003 0.1585 0.289
0.6814 0.073909998 -0.023390001
0.57999998 -0.1787 0.1611
0.8531 -0.1336 0.2956
0.51410002 0.1525 0.294
0.64029998 -0.1274 0.27239999
0.83329999 0.07322 -0.021570001
0.65810001 0.073639996 -0.02062
0.75459999 -0.13339999 0.30669999
0.79299998 -0.1196 0.29480001
0.86940002 -0.16249999 0.1891
0.77109998 0.087099999 0.063960001
0.59619999 -0.15369999 0.18709999
0.66210002 -0.18430001 0.1393
0.8039 -0.1309 0.2404
0.69450003 0.079340003 -0.0065410002
0.47580001 0.1494 0.2823
0.45390001 0.1399 0.2465
0.60159999 0.079329997 -0.0065819998
0.5255 0.1081 0.1252
0.77109998 0.083760001 0.01029
0.89139998 0.1097 0.07164
0.86449999 0.13330001 0.22149999
0.73830003 -0.1832 0.1189
0.45390001 0.1193 0.1683
0.91329998 0.097439997 0.091619998
0.71689999 0.078419998 0.03568
0.8477 0.1137 0.14650001
0.50889999 -0.17200001 0.1869
0.63980001 -0.13779999 0.29960001
0.5061 -0.12800001 0.28569999
0.74379998 0.1399 0.2465
0.8969 0.14910001 0.1637
0.8696 -0.1793 0.1198
0.80379999 -0.1877 0.1204
0.8531 -0.1237 0.26719999
0.5086 -0.1329 0.31549999
0.57429999 -0.1322 0.25709999
0.86119998 0.15459999 0.26949999
0.90450001 0.15009999 0.19949999
0.86949998 -0.13950001 0.26989999
0.55779999 0.125 0.1901
0.57969999 -0.13789999 0.30509999
0.98650002 0.073789999 -0.01582
0.67309999 0.080339998 0.04335
0.71090001 0.17110001 0.29859999
0.89770001 0.073210001 -0.002235
0.95099998 -0.17910001 0.134
0.73820001 -0.19589999 0.1029
0.67809999 0.083769999 0.01029
0.68730003 -0.1218 0.31259999
0.8204 -0.14049999 0.2071
0.67210001 -0.147 0.197
0.98439997 0.086110003 0.01811
0.61839998 0.1608 0.2009
0.57419997 0.14669999 0.27219999
0.76560003 0.1017 0.1042
0.4813 0.1719 0.2726
0.64520001 -0.1517 0.2441
0.51950002 0.14569999 0.2683
0.43200001 0.1127 0.1426
0.53600001 -0.1328 0.25870001
0.71640003 0.1716 0.26710001
0.45930001 0.077330001 -0.01315
0.68360001 0.1705 0.2509
0.61250001 0.148 0.27720001
0.7766 0.1567 0.18799999
0.4594 0.1107 0.1347
0.66119999 0.1071 0.2133
0.95160002 0.081569999 0.047669999
0.9242 0.089139998 0.02689
0.97130001 0.090089999 0.071330003
0.84259999 -0.1376 0.2142
0.8915 -0.1689 0.1371
0.90280002 0.078419998 0.03568
0.96749997 0.1035 0.081969999
0.47040001 -0.1688 0.15880001
0.67269999 -0.1618 0.16249999
0.52509999 -0.1786 0.1358
0.95700002 0.077430002 0.03115
0.50309998 0.1004 0.053479999
0.85320002 -0.15189999 0.1749
0.57969999 0.084899999 0.01422
0.74919999 0.092079997 0.034540001
0.8477 0.1415 0.1437
0.59060001 0.13240001 0.1202
0.83130002 0.084370002 0.056499999
0.5359 -0.1838 0.1495
0.4923 -0.1318 0.26789999
0.78750002 0.1193 0.1683
0.93559998 0.079329997 0.03954
0.49169999 -0.156 0.242
0.77649999 -0.1426 0.2665
0.61839998 0.1388 0.1357
0.57419997 0.083070002 0.052530002
0.84810001 -0.14579999 0.1903
0.7274 0.078680001 -0.01182
0.74940002 -0.1332 0.2375
0.65090001 -0.1927 0.1065
0.7931 -0.1926 0.1015
0.9188 0.096759997 0.046080001
0.73830003 0.1596 0.19660001
0.59609997 -0.1813 0.1279
0.7058 -0.1486 0.1926
0.58530003 -0.15440001 0.2397
0.8477 0.1007 0.053309999
0.8531 -0.1577 0.2059
0.46489999 0.16680001 0.2287
0.81529999 0.1275 0.1086
0.95160002 -0.1796 0.1154
0.79900002 -0.1666 0.1815
0.85360003 0.1679 0.2357
0.54689997 0.1136 0.078659996
0.65630001 0.13349999 0.1241
0.90780002 0.1098 0.071460001
0.53049999 0.124 0.1007
0.86949998 0.093359999 0.038449999
0.57419997 0.1137 0.14650001
0.63990003 0.16590001 0.2235
0.47620001 0.13330001 0.22149999
0.43900001 0.074199997 0.01074
0.5359 0.098839998 0.04958
0.65899998 -0.112 0.1674
0.67269999 0.14300001 0.1476
0.83670002 0.1097 0.071549997
0.75470001 0.080140002 -0.002632
0.55779999 -0.171 0.186
0.59020001 -0.1406 0.2929
0.72189999 0.083099999 0.0526
0.55790001 -0.1822 0.1284
0.83130002 -0.1318 0.2353
0.62339997 -0.1753 0.168
0.92799997 0.1245 0.1575
0.88529998 0.16580001 0.22310001
0.4984 -0.2006 0.1019
0.7274 0.1515 0.29010001
0.79290003 -0.182 0.1367
0.85369998 -0.1268 0.2518
0.65109998 0.1357 0.2291
0.82029998 0.073009998 -0.0119
0.65890002 -0.1115 0.1946
0.5086 0.171 0.25619999
0.68910003 0.17219999 0.27250001
0.66259998 -0.02427 0.1974
0.4648 0.09691 0.045990001
0.73830003 0.085989997 0.01829
0.44890001 0.079329997 0.03954
0.9091 0.15620001 0.18629999
0.7712 -0.1187 0.3053
0.66720003 0.1637 0.2132
0.44299999 0.1219 0.1785
0.52499998 0.17200001 0.2942
0.88050002 0.1029 0.1081
0.85360003 0.1275 0.1997
0.57429999 0.1627 0.20900001
0.4867 0.17030001 0.2509
0.51410002 0.1017 0.1042
0.6728 -0.1883 0.113
0.76590002 -0.1224 0.28150001
0.4544 0.1275 0.1997
0.40619999 0.074199997 0.01074
0.47569999 -0.18780001 0.14229999
0.80260003 0.1664 0.2958
0.49489999 -0.1833 0.15369999
0.96249998 0.073090002 -0.01723
0.9188 -0.1416 0.1969
0.93540001 -0.1442 0.18889999
0.65679997 -0.14480001 0.2692
0.83130002 0.083760001 0.01029
0.5036 0.079329997 0.03954
0.65890002 -0.051449999 0.20100001
0.47580001 0.1149 0.1515
0.54680002 -0.1767 0.1696
0.4594 0.0858 0.018239999
0.52499998 -0.1972 0.1132
0.80940002 0.1017 0.1042
0.90789998 -0.1302 0.2348
0.81480002 0.14470001 0.1512
0.71640003 0.1498 0.16769999
0.85339999 -0.1786 0.1213
0.59069997 -0.1336 0.2492
0.55830002 0.12729999 0.1086
0.78799999 0.078419998 0.03568
0.81489998 0.1206 0.1733
0.68349999 -0.1464 0.2606
0.92970002 0.083099999 0.0526
0.60159999 0.14569999 0.2683
0.50870001 -0.1401 0.30320001
0.69999999 0.090400003 0.072520003
0.70550001 -0.1327 0.2422
0.90780002 0.1206 0.1733
0.58520001 -0.1397 0.2278
0.72509998 0.073749997 -0.02489
0.80400002 0.076289997 -0.02709
0.63440001 0.090400003 0.030780001
0.4594 0.1516 0.17129999
0.60149997 -0.15270001 0.24439999
0.68360001 0.13070001 0.21179999
0.86400002 -0.1708 0.164
0.85909998 0.1058 0.1175
0.54710001 -0.1499 0.1996
0.92409998 -0.16689999 0.17129999
0.76020002 0.1389 0.2427
0.89139998 0.13079999 0.2119
0.87 0.080339998 0.04335
0.55239999 -0.1963 0.1046
0.55790001 -0.162 0.168
0.71090001 -0.1328 0.31150001
0.87129998 -0.1203 0.30630001
0.58520001 0.1107 0.1347
0.48699999 -0.17200001 0.15109999
0.65670002 0.078419998 0.03568
0.90240002 0.092079997 0.034540001
0.44299999 0.16150001 0.2052
0.71640003 0.16590001 0.2235
0.61250001 0.1044 0.113
0.95109999 -0.1679 0.16599999
0.76059997 0.13070001 0.116
0.7439 -0.176 0.1575
0.95700002 0.095339999 0.042160001
0.75190002 -0.18880001 0.1208
0.55239999 0.1515 0.29010001
0.52499998 0.092079997 0.034540001
0.59060001 0.14749999 0.15889999
0.4867 0.1004 0.053470001
0.91339999 -0.1727 0.12989999
0.52679998 0.07361 -0.01387
0.51950002 0.085689999 0.060199998
0.75510001 0.107 0.1214
0.875 0.14569999 0.1551
0.58520001 -0.1776 0.13510001
0.55239999 0.1371 0.13150001
0.9849 0.073210001 -0.0023699999
0.63429999 -0.1777 0.1602
0.60750002 0.16230001 0.2088
0.61790001 -0.1649 0.20100001
0.63980001 0.1505 0.16760001
0.42699999 0.12909999 0.1123
0.4817 0.12909999 0.1123
0.71090001 0.141 0.25040001
0.76059997 0.1296 0.20739999
0.56879997 0.087289996 0.02211
0.92379999 0.1462 0.1591
0.91329998 0.1018 0.05731
0.63440001 0.13070001 0.21179999
0.74919999 0.1517 0.17129999
0.80980003 0.1628 0.2086
0.4862 -0.1779 0.17039999
0.63120002 0.073749997 0.0059779999
0.47080001 0.1619 0.20469999
0.76010001 -0.1814 0.1408
0.76020002 0.1433 0.14740001
0.92970002 0.078680001 -0.01182
0.80400002 -0.1629 0.1531
0.55239999 -0.1675 0.15719999
0.80940002 0.1436 0.26050001
0.82029998 0.141 0.25040001
0.77109998 0.091870002 0.07632
0.86409998 -0.16760001 0.141
0.63440001 0.1162 0.1567
0.71100003 0.1429 0.14749999
0.86409998 -0.14579999 0.18979999
0.50910002 -0.1753 0.1434
0.56330001 0.07553 0.0207
0.722 -0.1937 0.1098
0.48679999 -0.1911 0.1157
0.59609997 0.07553 0.0207
0.9156 0.073749997 0.0059779999
0.9558 0.1137 0.1031
0.6627 -0.084320001 0.19589999
0.80430001 -0.1489 0.1858
0.93000001 -0.1885 0.1022
0.78750002 0.09471 0.083959997
0.66170001 -0.18009999 0.1512
0.54180002 -0.1925 0.1249
0.66119999 -0.1503 0.24779999
0.90789998 -0.16140001 0.1515
0.5359 0.077430002 0.03115
0.88050002 0.086120002 0.01815
0.65630001 0.087140001 0.02217
0.85860002 0.07553 0.0207
0.56879997 0.1044 0.060570002
0.44299999 0.089139998 0.02689
0.65630001 0.1716 0.26710001
0.49770001 0.1698 0.2455
0.58560002 0.167 0.2279
0.70550001 0.076420002 0.02596
0.57969999 0.1582 0.30329999
0.82849997 0.1701 0.2854
0.8258 0.1168 0.086120002
0.54680002 -0.15719999 0.2331
0.51410002 0.1096 0.07164
0.59069997 -0.1231 0.30540001
0.61799997 0.17219999 0.27250001
0.62339997 -0.1434 0.27779999
0.60140002 -0.1605 0.21709999
0.83130002 -0.1364 0.21870001
0.5359 -0.2007 0.1031
0.65979999 -0.041250002 0.14820001
0.56870002 -0.1934 0.1205
0.63990003 0.1621 0.30430001
0.8915 -0.1566 0.20640001
0.65890002 -0.1226 0.1903
0.52499998 0.1193 0.1683
0.9576 -0.16940001 0.1323
0.65079999 0.1162 0.1567
0.53060001 -0.127 0.2897
0.49790001 0.1674 0.2322
0.4648 -0.1957 0.1097
0.96259999 -0.1813 0.1116
0.55779999 0.1007 0.053309999
0.72189999 0.081950001 0.0053989999
0.68360001 0.073009998 -0.0119
0.4598 0.1058 0.1175
0.79299998 0.1043 0.060630001
0.57419997 -0.17479999 0.1732
0.78200001 0.13070001 0.21179999
0.62940001 0.1399 0.13950001
0.57969999 0.1007 0.053309999
0.88050002 0.097050004 0.045910001
0.55779999 0.1582 0.1919
0.58520001 0.1504 0.2863
0.44299999 0.1206 0.0933
0.8452 0.1603 0.2798
0.64529997 0.089139998 0.02689
0.85860002 0.084349997 0.056419998
0.78759998 -0.17030001 0.13869999
0.73280001 0.1621 0.30430001
0.91320002 -0.16590001 0.1752
0.75470001 0.1004 0.1004
0.50309998 -0.1455 0.28099999
0.65619999 -0.15539999 0.23010001
0.51959997 -0.1286 0.28200001
0.63440001 0.1504 0.2863
0.65920001 -0.094870001 0.15350001
0.54689997 0.12630001 0.19509999
0.61809999 -0.16760001 0.15260001
0.67320001 -0.16 0.2128
0.67259997 0.077809997 -0.017130001
0.77649999 -0.127 0.31439999
0.75480002 -0.1507 0.1841
0.56370002 0.167 0.2279
0.98439997 0.074759997 0.01534
0.80949998 -0.16779999 0.17730001
0.75470001 -0.1488 0.2449
0.81510001 -0.1662 0.1453
0.51450002 -0.18080001 0.13259999
0.8477 -0.1179 0.29960001
0.66289997 0.024560001 0.1239
0.58520001 0.1321 0.21690001
0.74379998 0.134 0.1239
0.78200001 -0.1529 0.228
0.48679999 -0.1972 0.1058
0.42660001 0.106 0.064300001
0.71649998 -0.1203 0.30950001
0.76020002 0.1726 0.28349999
0.82029998 0.134 0.1239
0.68910003 0.089139998 0.02689
0.62339997 0.097439997 0.091619998
0.54729998 0.1296 0.20739999
0.82069999 -0.17380001 0.131
0.61299998 0.1296 0.20739999
0.51450002 0.1353 0.22920001
0.61250001 0.1515 0.29010001
0.5359 0.15719999 0.18790001
0.9188 -0.1464 0.1855
0.88059998 -0.13410001 0.22239999
0.63990003 -0.16590001 0.15549999
0.54140002 -0.12899999 0.27810001
0.78750002 0.1565 0.1881
0.59060001 -0.13770001 0.30509999
0.78750002 0.079329997 -0.0065799998
0.74919999 0.086139999 0.01822
0.47589999 -0.1383 0.24240001
0.9242 0.087099999 0.063960001
0.73280001 0.097439997 0.091619998
0.9242 0.097439997 0.091619998
0.66170001 0.1162 0.1567
0.82620001 0.1275 0.1086
0.75059998 0.073239997 -0.021740001
0.76020002 0.083760001 0.01029
0.94059998 0.1017 0.1042
0.59609997 0.1556 0.1842
0.7439 -0.17479999 0.13240001
0.53640002 0.080339998 0.04335
0.91360003 -0.13779999 0.2089
0.64529997 0.1701 0.2509
0.69989997 -0.18359999 0.13850001
0.75470001 -0.17030001 0.1736
0.69450003 -0.1754 0.16249999
0.68919998 -0.126 0.27309999
0.85329998 -0.1373 0.2142
0.4438 0.073210001 -0.002235
0.44839999 0.16509999 0.2183
0.69999999 0.124 0.18629999
0.7597 -0.1407 0.27559999
0.89179999 -0.1382 0.273
0.68360001 0.1662 0.2235
0.95990002 0.1068 0.096249998
0.86360002 -0.1232 0.2667
0.79900002 -0.17200001 0.16500001
0.79299998 0.1401 0.14
0.47580001 0.14669999 0.27219999
0.8883 0.073469996 0.002268
0.9023 -0.147 0.2388
0.84310001 0.073760003 -0.02922
0.85610002 -0.1196 0.31240001
0.5086 0.1662 0.2235
0.9242 -0.1781 0.13850001
0.49259999 -0.15369999 0.1925
0.60159999 -0.15019999 0.1948
0.81480002 -0.19050001 0.1122
0.69999999 0.1698 0.2455
0.94059998 0.077430002 0.03115
0.71640003 0.076420002 0.02596
0.76020002 0.096900001 0.045979999
0.7529 0.16949999 0.3019
0.47580001 0.088890001 0.06865
0.7712 -0.12819999 0.25440001
0.7766 -0.15019999 0.1839
0.80400002 -0.17209999 0.13500001
0.9242 0.1004 0.053459998
0.57419997 0.1151 0.08247
0.56330001 0.091870002 0.07632
0.65979999 -0.06222 0.2034
0.42109999 0.1097 0.071549997
0.65069997 -0.1495 0.25189999
0.89270002 0.15989999 0.22059999
0.47580001 0.1399 0.2465
0.63440001 0.14569999 0.2683
0.92739999 0.13420001 0.1566
0.91869998 -0.1842 0.1222
0.51999998 0.1058 0.1175
0.7385 0.13860001 0.1358
0.96240002 -0.1832 0.1219
0.4813 -0.1345 0.25619999
0.86400002 -0.1453 0.2481
0.96329999 0.073210001 -0.0022750001
0.58520001 0.1172 0.16060001
0.7931 -0.1328 0.3055
0.85509998 0.07322 -0.021570001
0.71689999 0.162 0.2088
0.66769999 0.078419998 0.03568
0.51950002 0.15549999 0.30129999
0.58520001 -0.19930001 0.1006
0.65899998 -0.1226 0.1684
0.50319999 -0.1908 0.1155
0.87540001 0.1671 0.228
0.62339997 0.080920003 0.001374
0.50889999 -0.1895 0.13519999
0.63440001 0.1004 0.1004
0.60159999 -0.1295 0.26730001
0.91500002 -0.13950001 0.24339999
0.66280001 -0.1336 0.18520001
0.82069999 -0.18440001 0.1283
0.66000003 0.09742 0.21179999
0.65880001 0.04693 0.2123
0.84750003 0.1683 0.27649999
0.53350002 -0.1937 0.1221
0.71640003 0.15369999 0.29809999
0.6631 0.0141 0.1248
0.66250002 -0.1007 0.19050001
0.87519997 -0.1604 0.1953
0.84789997 -0.1285 0.2455
0.49770001 -0.19509999 0.1086
0.63429999 -0.1288 0.26629999
0.79839998 -0.1693 0.1732
0.88590002 0.1093 0.12970001
0.95749998 0.079329997 0.03954
0.75700003 0.073469996 0.002268
0.97890002 0.073009998 -0.0119
0.66000003 -0.033160001 0.1327
0.66229999 0.1163 0.22660001
0.57419997 0.079499997 -0.0065779998
0.50340003 -0.1647 0.1654
0.99049997 0.083489999 0.039310001
0.66720003 0.079329997 -0.0065819998
0.47580001 0.074759997 0.01534
0.65079999 0.073090002 -0.01677
0.89139998 0.092079997 0.034540001
0.81480002 -0.1547 0.219
0.40470001 0.082439996 0.0052820002
0.79299998 -0.12989999 0.2456
0.87510002 -0.1568 0.1627
0.72189999 -0.1229 0.28709999
0.62339997 0.086110003 0.01812
0.65990001 0.16949999 0.3019
0.4867 -0.16590001 0.20810001
0.49779999 -0.14820001 0.2085
0.83670002 -0.177 0.1478
0.52490002 -0.2001 0.1056
0.66070002 -0.1042 0.1689
0.69450003 0.1148 0.082620002
0.4594 0.1494 0.2823
0.54140002 0.1515 0.29010001
0.66729999 -0.1655 0.15530001
0.65079999 0.1182 0.1645
0.49759999 -0.1918 0.1296
0.58520001 0.1525 0.294
0.70569998 -0.1796 0.12620001
0.49770001 -0.1867 0.1224
0.58560002 0.1684 0.23559999
0.73280001 0.076870002 -0.022150001
0.76569998 -0.1209 0.28960001
0.44839999 0.12630001 0.19509999
0.58600003 0.073210001 -0.002235
0.68370003 -0.13680001 0.2297
0.8642 -0.1209 0.27869999
0.66299999 -0.1171 0.16339999
0.47580001 0.1365 0.23360001
0.69459999 -0.13500001 0.23459999
0.68360001 0.087449998 0.022050001
0.93019998 -0.1869 0.114
0.90240002 0.1193 0.1683
0.79299998 0.1594 0.19660001
0.9188 0.099079996 0.096450001
0.4594 0.14910001 0.1637
0.85320002 -0.12970001 0.23999999
0.74379998 0.15809999 0.1919
0.83380002 0.16500001 0.28479999
0.78210002 -0.13600001 0.22400001
0.66280001 0.1016 0.21789999
0.662 -0.19750001 0.1034
0.59060001 -0.15899999 0.2228
0.87519997 -0.12630001 0.30500001
0.8696 -0.1515 0.1745
0.83149999 -0.12809999 0.249
0.44299999 0.13060001 0.1163
0.52509999 -0.19059999 0.1153
0.60189998 -0.17919999 0.131
0.72189999 -0.1512 0.1846
0.51999998 0.1684 0.23559999
0.65079999 0.084579997 0.01434
0.90249997 -0.13779999 0.26809999
0.86409998 0.095190004 0.04225
0.54140002 0.1371 0.13150001
0.74919999 0.081079997 0.001335
0.57980001 -0.1856 0.1211
0.44890001 0.14129999 0.1433
0.5528 0.1619 0.20469999
0.76560003 0.1182 0.1645
0.8915 -0.16320001 0.1479
0.66180003 -0.1673 0.1517
0.8696 -0.1655 0.1444
0.80400002 -0.1397 0.2113
0.69989997 -0.1619 0.2041
0.90780002 0.090400003 0.030780001
0.50319999 -0.1495 0.20460001
0.74370003 0.084930003 0.01432
0.78200001 0.08873 0.068240002
0.67150003 0.0744 -0.022879999
0.53049999 0.097050004 0.045910001
0.51410002 0.097050004 0.045910001
0.84210002 -0.17129999 0.16419999
0.72189999 0.14569999 0.2683
0.53039998 -0.19859999 0.1094
0.74919999 -0.1946 0.1056
0.58560002 0.13070001 0.116
0.50349998 -0.1392 0.30739999
0.7274 0.1661 0.30379999
0.48719999 0.13429999 0.2254
0.61250001 -0.1662 0.1972
0.56349999 -0.14 0.2287
0.9242 0.075099997 -0.03077
0.52509999 -0.12800001 0.28580001
0.56900001 -0.15539999 0.1833
0.9623 -0.1857 0.1055
0.8696 -0.124 0.26179999
0.92940003 -0.15629999 0.2042
0.87470001 -0.1322 0.29929999
0.6627 -0.05689 0.2008
0.62580001 0.073469996 0.002268
0.62339997 -0.1283 0.3152
0.7931 -0.16599999 0.1841
0.55769998 -0.13420001 0.25
0.70679998 0.073409997 -0.021740001
0.65979999 -0.1059 0.19760001
0.65899998 0.01952 0.1246
0.73820001 -0.18870001 0.1219
0.84780002 -0.17730001 0.1236
0.80409998 -0.1925 0.1016
0.7507 0.074199997 0.01074
0.4648 -0.20110001 0.107
0.86949998 -0.16 0.197
0.73830003 0.1416 0.1435
0.66280001 0.091009997 0.2138
0.48140001 -0.17209999 0.1512
0.66250002 0.041450001 0.20479999
0.80430001 0.16240001 0.2087
0.48679999 -0.1383 0.2422
0.78210002 -0.1652 0.1499
0.66170001 -0.1552 0.23010001
0.63980001 -0.14740001 0.2608
0.50309998 0.1709 0.2563
0.80930001 -0.19059999 0.1123
0.74379998 -0.1831 0.1188
0.42109999 0.1059 0.064379998
0.74919999 -0.17039999 0.1736
0.4375 0.1127 0.1425
0.56330001 0.1725 0.28889999
0.62339997 0.1436 0.26050001
0.6512 0.078419998 0.03568
0.83759999 0.073760003 -0.02922
0.4923 -0.1911 0.1157
0.8969 0.092079997 0.034540001
0.875 0.076420002 0.02596
0.66250002 -0.1062 0.19050001
0.4648 0.15800001 0.1919
0.75510001 0.1353 0.22920001
0.56879997 0.091870002 0.07632
0.51950002 0.17200001 0.2942
0.65880001 0.096150003 0.21780001
0.93519998 0.076090001 -0.027519999
0.85320002 -0.15109999 0.22830001
0.62360001 -0.16599999 0.1561
0.86949998 0.084749997 0.01432
0.5413 -0.2006 0.103
0.76560003 -0.1533 0.2281
0.76010001 -0.1487 0.2449
0.44839999 0.1093 0.12970001
0.65630001 0.1079 0.067929998
0.65630001 0.1162 0.1567
0.81489998 0.081079997 0.001335
0.4598 0.13330001 0.22149999
0.86949998 0.1389 0.2427
0.8531 0.1137 0.14650001
0.514 -0.14 0.30289999
0.77139997 -0.1869 0.1248
0.4323 0.12899999 0.1125
0.71460003 0.16949999 0.3019
0.78789997 -0.1328 0.30579999
0.72189999 0.081569999 0.047669999
0.69999999 -0.1349 0.23450001
0.69450003 -0.17380001 0.1674
0.63990003 0.074830003 -0.02152
0.64499998 -0.146 0.2658
0.5086 0.17110001 0.29859999
0.8204 -0.13699999 0.2189
0.5905 -0.1576 0.2277
0.57419997 -0.16429999 0.20630001
0.66240001 -0.1091 0.1698
0.85680002 -0.1164 0.3087
0.61809999 -0.12899999 0.26679999
0.78750002 0.1321 0.21690001
0.71090001 0.088789999 0.068389997
0.84450001 0.1649 0.27919999
0.85869998 -0.1569 0.16339999
0.59109998 0.13070001 0.116
0.56339997 -0.15899999 0.17560001
0.51450002 0.1384 0.1358
0.65890002 0.1232 0.21879999
0.9734 0.077069998 -0.022460001
0.6735 0.073210001 -0.002235
0.75980002 -0.13959999 0.2798
0.85829997 0.17120001 0.2613
0.66170001 -0.1003 0.1675
0.74190003 0.16940001 0.3019
0.4923 -0.14300001 0.2247
0.66259998 0.1012 0.2137
0.55809999 -0.1401 0.22849999
0.63990003 -0.15549999 0.1786
0.99220002 0.084830001 0.035719998
0.50889999 -0.1732 0.183
0.74940002 -0.134 0.2335
0.92400002 0.14309999 0.14740001
0.86409998 0.1079 0.067919999
0.91869998 -0.1856 0.1184
0.81480002 0.1725 0.2834
0.56919998 -0.15700001 0.1796
0.76059997 0.12909999 0.1123
0.4862 -0.14049999 0.30399999
0.67269999 -0.1636 0.15889999
0.54689997 0.1504 0.1675
0.80940002 0.1004 0.1004
0.71689999 0.1613 0.2049
0.51999998 0.16769999 0.2317
0.58560002 0.1081 0.1252
0.55830002 0.080339998 0.04335
0.8477 0.125 0.1901
0.47580001 0.073080003 -0.0065210001
0.71460003 -0.1213 0.31259999
0.84079999 0.167 0.28049999
0.92430001 -0.17020001 0.1331
0.8531 0.076090001 -0.027519999
0.82859999 -0.1657 0.14569999
0.92970002 0.076090001 -0.027519999
0.93000001 0.14129999 0.1486
0.65960002 -0.038350001 0.1477
0.66720003 -0.1974 0.1033
0.71090001 -0.1309 0.31349999
0.98790002 0.092799999 0.037269998
