# .PCD v0.7 - Point Cloud Data file format
VERSION 0.7
FIELDS x y z
SIZE 4 4 4
TYPE F F F
COUNT 1 1 1
WIDTH 1514
HEIGHT 1
VIEWPOINT 0 0 0 1 0 0 0
POINTS 1514
DATA ascii
-0.043889999 -0.1155 -0.4129
-0.26730001 -0.26570001 -0.80470002
0.001779 -0.038229998 -0.78479999
-0.00044199999 -0.3743 -0.64569998
0.2242 -0.229 -0.64569998
-0.065370001 -0.3001 -0.94569999
-0.1859 -0.2245 -0.58660001
0.003237 -0.1609 -0.62440002
0.049219999 -0.26930001 -0.79949999
0.01436 -0.27559999 -0.4817
-0.1039 -0.2509 -0.74959999
-0.00324 -0.15539999 -0.89230001
0.2023 -0.26609999 -0.78390002
-0.198 -0.29260001 -0.9242
0.1158 -0.2044 -0.52029997
0.098449998 -0.24250001 -0.67220002
0.065549999 -0.2967 -0.949
0.001412 -0.039790001 -0.65499997
-0.076549999 -0.2024 -0.51959997
0.067620002 -0.1723 -0.41620001
-0.00324 -0.1718 -0.7665
-0.2133 -0.2419 -0.70539999
-0.02428 -0.27219999 -0.6006
0.018100001 -0.1389 -0.51539999
-0.054680001 -0.27869999 -0.84369999
-0.01359 -0.2782 -0.70999998
-0.15270001 -0.26989999 -0.83999997
0.1313 -0.2728 -0.85350001
-0.064369999 -0.20640001 -0.41729999
0.02558 -0.27250001 -0.38929999
-0.1148 -0.2395 -0.65789998
0.2624 -0.28040001 -0.85339999
0.1477 -0.228 -0.60339999
0.02734 -0.2114 -0.55879998
-0.00324 -0.1062 -0.70639998
0.1258 -0.25299999 -0.75470001
-0.00291 -0.08512 -0.57020003
0.2581 -0.25299999 -0.72960001
-0.00324 -0.1007 -0.83759999
0.043760002 -0.28549999 -0.8761
0.027179999 -0.2141 -0.67729998
-0.25850001 -0.2791 -0.87980002
0.1805 -0.2491 -0.7033
-0.00324 -0.2101 -0.84310001
-0.087499999 -0.2256 -0.59170002
-0.2023 -0.25659999 -0.77689999
-0.002267 -0.39210001 -0.71429998
-0.038759999 -0.2316 -0.662
-0.037700001 -0.25870001 -0.53380001
0.060619999 -0.2472 -0.73220003
-0.035719998 -0.1737 -0.56870002
-0.03317 -0.26629999 -0.43110001
-0.0328 -0.25549999 -0.77170002
-0.04902 -0.1529 -0.48410001
0.060169999 -0.23019999 -0.61390001
0.056279998 -0.2401 -0.44369999
-0.131 -0.29069999 -0.93760002
-0.14399999 -0.2089 -0.53710002
0.050949998 -0.19679999 -0.4991
0.1973 -0.28150001 -0.85729998
-0.01093 -0.2854 -0.91329998
0.0022730001 -0.30790001 -0.55369997
0.043960001 -0.133 -0.45809999
0.1258 -0.2929 -0.91109997
0.02468 -0.26710001 -0.64649999
0.0021210001 -0.031800002 -0.72460002
-0.1909 -0.2369 -0.64560002
0.003237 -0.1007 -0.62980002
-0.1531 -0.24349999 -0.70929998
-0.0164 -0.1989 -0.50199997
-0.00324 -0.095250003 -0.77200001
-0.01578 -0.2218 -0.72189999
-0.003082 -0.32820001 -0.60720003
0.098449998 -0.214 -0.57429999
-0.21870001 -0.27759999 -0.83850002
0.038959999 -0.26050001 -0.53079998
0.0054959999 -0.2217 -0.60939997
-0.09843 -0.28909999 -0.89300001
-0.00324 -0.1609 -0.7119
3.0000001e-06 -0.27759999 -0.83850002
0.16500001 -0.21610001 -0.55299997
-0.082029998 -0.241 -0.70020002
-0.01071 -0.113 -0.45390001
0.003237 -0.221 -0.78839999
-0.0022110001 -0.2987 -0.75690001
0.17 -0.23109999 -0.65560001
-0.02905 -0.2705 -0.37729999
0.1094 -0.271 -0.80720001
-0.056940001 -0.22139999 -0.47679999
-0.1476 -0.2313 -0.61900002
0.26460001 -0.26350001 -0.77829999
-0.16949999 -0.28709999 -0.88380003
-0.1094 -0.27289999 -0.81639999
0.0032259999 -0.1444 -0.56419998
-0.035179999 -0.1954 -0.61260003
0.033829998 -0.25979999 -0.5862
-0.26100001 -0.25310001 -0.7586
-0.060860001 -0.1596 -0.42789999
-0.042819999 -0.2221 -0.56459999
-0.2349 -0.233 -0.66289997
-0.00324 -0.13349999 -0.79939997
0.1957 -0.2235 -0.58740002
-0.001609 -0.34020001 -0.67739999
0.2352 -0.27289999 -0.81639999
0.2323 -0.2877 -0.9109
0.087499999 -0.27959999 -0.88599998
-0.00324 -0.1499 -0.6681
0.032559998 -0.1822 -0.59750003
-0.1586 -0.2545 -0.7665
-0.029340001 -0.27129999 -0.4912
0.0054139998 -0.30129999 -0.95139998
-0.076559998 -0.2349 -0.63590002
0.039980002 -0.1696 -0.53869998
0.023220001 -0.2608 -0.69029999
-0.00324 -0.17730001 -0.81029999
0.060070001 -0.1793 -0.45969999
0.1039 -0.2313 -0.61900002
0.0028250001 -0.2203 -0.88550001
0.16949999 -0.26800001 -0.82599998
0.1367 -0.2483 -0.69950002
-0.01829 -0.2757 -0.64990002
0.058770001 -0.2348 -0.4003
0.16949999 -0.25220001 -0.75480002
0.022150001 -0.27469999 -0.43270001
-0.05706 -0.2387 -0.38940001
-0.05469 -0.25569999 -0.73460001
0.1586 -0.27959999 -0.88609999
0.20829999 -0.2481 -0.73610002
-0.0031330001 -0.062449999 -0.61339998
0.019200001 -0.2633 -0.74980003
0.087509997 -0.25650001 -0.77149999
-0.001871 -0.32190001 -0.71499997
0.046610001 -0.2498 -0.48789999
-0.00324 -0.073370002 -0.67909998
0.057179999 -0.13259999 -0.40059999
0.2352 -0.2474 -0.69559997
-0.049210001 -0.28709999 -0.88380003
-0.25130001 -0.25209999 -0.71780002
-0.0060100001 -0.09984 -0.41209999
0.060169999 -0.2395 -0.65789998
-0.21870001 -0.2863 -0.88
-0.0098130004 -0.1978 -0.67830002
-0.16949999 -0.27020001 -0.80339998
-0.00324 -0.1718 -0.85399997
0.06027 -0.2062 -0.53659999
-0.1312 -0.28439999 -0.87099999
-0.071079999 -0.26440001 -0.77609998
-0.039700001 -0.16 -0.52179998
0.00080600003 -0.1076 -0.53799999
-0.064049996 -0.1884 -0.45460001
-0.00324 -0.139 -0.74470001
-0.04132 -0.2366 -0.61870003
0.002903 -0.067919999 -0.7392
-0.043740001 -0.271 -0.80720001
-0.0014440001 -0.066119999 -0.85509998
-0.1477 -0.2234 -0.58130002
-0.00324 -0.1117 -0.6681
0.060649998 -0.22239999 -0.57669997
-0.1089 -0.2167 -0.54939997
0.01284 -0.18780001 -0.64950001
-0.2226 -0.22570001 -0.62809998
0.071050003 -0.20100001 -0.38949999
-0.043740001 -0.2483 -0.69950002
0.005479 -0.2863 -0.88
-0.01048 -0.20919999 -0.5517
0.087509997 -0.2798 -0.84890002
-0.09296 -0.2798 -0.84890002
-0.1586 -0.2406 -0.66320002
-0.1859 -0.25400001 -0.72670001
0.01826 -0.2384 -0.72280002
0.19140001 -0.2321 -0.62279999
0.06476 -0.2088 -0.42500001
0.1533 -0.29300001 -0.93470001
0.038290001 -0.2929 -0.91109997
0.054699998 -0.27000001 -0.83520001
-0.020090001 -0.13249999 -0.49129999
0.076559998 -0.2405 -0.70029998
0.003237 -0.1937 -0.7392
-0.00324 -0.062430002 -0.81029999
-0.2352 -0.25960001 -0.7899
0.003237 -0.1445 -0.83219999
-0.0076370002 -0.2297 -0.75520003
-0.029619999 -0.2985 -0.9526
0.05153 -0.16240001 -0.4923
0.01379 -0.27520001 -0.55870003
0.00167 -0.3897 -0.6796
-0.1203 -0.26609999 -0.78390002
-0.0051549999 -0.278 -0.41119999
-0.052480001 -0.2263 -0.53140002
0.1313 -0.2198 -0.56449997
0.092969999 -0.28740001 -0.92110002
-0.017650001 -0.2678 -0.74290001
-0.01561 -0.1693 -0.59640002
-0.01005 -0.27880001 -0.53140002
0.2297 -0.2757 -0.86650002
-0.052030001 -0.24680001 -0.45469999
-0.14219999 -0.29120001 -0.9034
-0.0050149998 -0.23190001 -0.65939999
-0.25150001 -0.27000001 -0.83520001
-0.043740001 -0.29480001 -0.92030001
0.023390001 -0.112 -0.44159999
0.0029800001 -0.25279999 -0.81620002
0.00244 -0.1062 -0.597
0.0057020001 -0.2784 -0.61339998
-0.1859 -0.27669999 -0.83450001
0.13169999 -0.227 -0.63599998
-0.02734 -0.2748 -0.86269999
0.0024029999 -0.1883 -0.89230001
-0.0058459998 -0.28169999 -0.78460002
-0.028270001 -0.20280001 -0.65079999
-0.018680001 -0.2762 -0.45860001
-0.19140001 -0.2362 -0.67820001
-0.1094 -0.24510001 -0.71700001
0.036120001 -0.2217 -0.64560002
0.1313 -0.24169999 -0.66829997
-0.0054640002 -0.2474 -0.69559997
-0.1148 -0.23289999 -0.62669998
0.1481 -0.2472 -0.73220003
0.054699998 -0.25549999 -0.77170002
-0.031780001 -0.26280001 -0.57169998
-0.002018 -0.24529999 -0.86760002
0.01446 -0.2122 -0.70550001
0.26480001 -0.27110001 -0.80830002
0.086860001 -0.2084 -0.51090002
-0.02084 -0.15270001 -0.54710001
-0.021880001 -0.2186 -0.59640002
0.2406 -0.25369999 -0.76270002
0.2024 -0.2375 -0.68610001
0.1969 -0.26440001 -0.81339997
0.00046000001 -0.22239999 -0.57669997
-0.1258 -0.24529999 -0.68519998
-0.015939999 -0.2262 -0.6322
-0.05051 -0.18780001 -0.52090001
-0.16869999 -0.29609999 -0.92860001
0.1531 -0.26440001 -0.77609998
0.076569997 -0.26449999 -0.80919999
0.14219999 -0.27289999 -0.81639999
0.034600001 -0.29980001 -0.95039999
0.02249 -0.27200001 -0.50959998
0.038479999 -0.20299999 -0.61699998
0.039829999 -0.26109999 -0.4549
0.1969 -0.2902 -0.89829999
0.032910001 -0.1344 -0.48480001
0.04143 -0.18700001 -0.56510001
0.2422 -0.23549999 -0.67030001
0.1149 -0.25209999 -0.71780002
-0.003276 -0.13349999 -0.61879998
0.058150001 -0.2261 -0.47659999
-0.00056199997 -0.3475 -0.63559997
0.003237 -0.13349999 -0.70090002
-0.09296 -0.29859999 -0.93839997
-0.076549999 -0.24250001 -0.67220002
-0.019889999 -0.27320001 -0.67830002
0.0022140001 -0.3195 -0.58060002
-0.058979999 -0.183 -0.48210001
0.04197 -0.26280001 -0.4161
-0.1039 -0.2102 -0.51889998
-0.14219999 -0.27180001 -0.81120002
0.01095 -0.20559999 -0.49810001
0.16410001 -0.24420001 -0.68000001
0.000463 -0.2034 -0.52429998
0.027799999 -0.2807 -0.85339999
0.0027369999 -0.073399998 -0.65170002
0.087509997 -0.25479999 -0.7306
-0.00324 -0.1062 -0.86500001
-0.055270001 -0.15090001 -0.45379999
0.003237 -0.095250003 -0.74470001
0.049219999 -0.24160001 -0.70550001
-0.00324 -0.1445 -0.77200001
-0.08202 -0.2464 -0.72750002
-0.00324 -0.1663 -0.7392
0.003274 -0.13349999 -0.59170002
-0.060180001 -0.2245 -0.58660001
-0.2133 -0.25479999 -0.7306
0.2168 -0.22579999 -0.61390001
0.05497 -0.1401 -0.4269
0.01055 -0.27689999 -0.58579999
0.003237 -0.1445 -0.85949999
-0.040830001 -0.1944 -0.58569998
-0.046259999 -0.25009999 -0.49349999
0.00257 -0.1882 -0.70090002
-0.1476 -0.2489 -0.73519999
0.033739999 -0.2305 -0.60839999
-0.1644 -0.21709999 -0.55269998
0.1094 -0.23010001 -0.65100002
0.002903 -0.05153 -0.70639998
-0.01513 -0.1812 -0.62279999
-0.175 -0.27489999 -0.85860002
-0.0592 -0.1382 -0.40090001
-0.2023 -0.26519999 -0.81730002
0.03822 -0.24349999 -0.67199999
0.0053679999 -0.2793 -0.68440002
-0.01016 -0.2784 -0.5697
-0.1312 -0.22040001 -0.60149997
0.1148 -0.28799999 -0.88779998
0.029580001 -0.2676 -0.61320001
-0.02768 -0.21780001 -0.68120003
-0.2406 -0.24529999 -0.68519998
0.0032259999 -0.13349999 -0.53689998
-0.046969999 -0.25709999 -0.40459999
-0.0051810001 -0.2432 -0.77819997
0.0087649999 -0.1663 -0.58840001
4.9999999e-05 -0.1218 -0.4795
0.0047149998 -0.27700001 -0.373
0.1313 -0.26719999 -0.78909999
0.098229997 -0.29699999 -0.94410002
-0.034000002 -0.2507 -0.63849998
-0.037459999 -0.1216 -0.4366
0.002903 -0.221 -0.82120001
0.002903 -0.1882 -0.83219999
0.16410001 -0.292 -0.9073
-0.2351 -0.27289999 -0.81639999
-0.08202 -0.28439999 -0.87099999
0.054719999 -0.24879999 -0.37819999
-0.16949999 -0.23379999 -0.63069999
-0.1094 -0.2146 -0.57419997
0.016450001 -0.227 -0.63129997
-0.06583 -0.1815 -0.4172
-0.098420002 -0.25659999 -0.77689999
0.16949999 -0.2186 -0.59640002
-0.21870001 -0.2529 -0.75880003
-0.1417 -0.2369 -0.64560002
-0.00324 -0.073370002 -0.78299999
-0.0032579999 -0.139 -0.6462
0.060169999 -0.2367 -0.68220001
-0.16949999 -0.2579 -0.745
0.1204 -0.2166 -0.58600003
0.027349999 -0.26719999 -0.78909999
0.21879999 -0.24169999 -0.66839999
-0.054900002 -0.20460001 -0.54180002
0.054710001 -0.1538 -0.46380001
0.047529999 -0.22229999 -0.55159998
0.186 -0.2463 -0.72759998
-0.21870001 -0.29120001 -0.9034
0.098449998 -0.206 -0.53659999
0.046489999 -0.244 -0.51529998
0.1973 -0.23270001 -0.66329998
-0.009482 -0.27599999 -0.4366
0.21879999 -0.25099999 -0.71249998
0.087499999 -0.2349 -0.63590002
-0.071079999 -0.2291 -0.60860002
0.05469 -0.28209999 -0.89770001
0.035750002 -0.24699999 -0.64029998
0.016419999 -0.27399999 -0.82169998
-0.1094 -0.2879 -0.92500001
0.04267 -0.23450001 -0.58639997
0.02909 -0.1061 -0.41710001
0.1481 -0.2377 -0.6494
-0.065619998 -0.26440001 -0.81339997
0.1039 -0.2394 -0.69499999
0.038290001 -0.25479999 -0.7306
0.2133 -0.2545 -0.7665
-0.068159997 -0.2089 -0.3942
-0.064779997 -0.2071 -0.4998
0.043249998 -0.16249999 -0.51429999
0.01097 -0.2374 -0.6821
0.2463 -0.26989999 -0.83990002
-0.00324 -0.1992 -0.79390001
0.054749999 -0.2137 -0.51480001
0.1531 -0.2798 -0.84890002
1.3e-05 -0.25209999 -0.71780002
0.16410001 -0.27020001 -0.80339998
-0.1367 -0.26249999 -0.76709998
-0.19140001 -0.28549999 -0.8761
-0.051270001 -0.16779999 -0.50319999
-0.00324 -0.17730001 -0.66259998
-0.021880001 -0.26930001 -0.79949999
0.01095 -0.2929 -0.91109997
-0.03827 -0.20640001 -0.50059998
-0.044229999 -0.2449 -0.56150001
0.039420001 -0.25639999 -0.56410003
-0.1312 -0.25099999 -0.71249998
-0.01833 -0.27599999 -0.6225
-0.02692 -0.1435 -0.51029998
0.175 -0.2764 -0.87040001
0.0058209999 -0.27869999 -0.6408
0.1039 -0.2764 -0.87040001
-0.048530001 -0.2191 -0.60589999
-0.01061 -0.27649999 -0.76279998
-0.00070400001 -0.35179999 -0.61320001
0.003237 -0.0515 -0.67909998
-0.082029998 -0.2843 -0.90810001
-0.039239999 -0.2507 -0.58950001
0.039590001 -0.211 -0.57800001
-0.2078 -0.233 -0.66280001
-0.2131 -0.22570001 -0.60759997
0.0020949999 -0.25490001 -0.84759998
0.1094 -0.27200001 -0.84820002
-0.00324 -0.095250003 -0.68449998
-0.02956 -0.27070001 -0.4093
-0.054680001 -0.236 -0.64109999
-0.092979997 -0.2225 -0.61320001
0.02052 -0.27329999 -0.66750002
0.044860002 -0.1216 -0.41949999
0.1805 -0.26519999 -0.77990001
0.028860001 -0.2357 -0.69919997
-0.1859 -0.2902 -0.89829999
-0.02733 -0.27399999 -0.82169998
0.2604 -0.25229999 -0.75150001
0.0061189998 -0.26539999 -0.77590001
-0.06016 -0.24339999 -0.71329999
-0.054680001 -0.26140001 -0.76179999
-0.065499999 -0.2052 -0.43920001
0.071089998 -0.28760001 -0.921
-0.257 -0.2739 -0.85869998
0.2024 -0.27849999 -0.88080001
-0.03252 -0.25260001 -0.71759999
0.00342 -0.1061 -0.57529998
-0.03655 -0.264 -0.4567
-0.034699999 -0.25740001 -0.61260003
0.032820001 -0.20720001 -0.50470001
-0.0021250001 -0.049120001 -0.6304
0.04862 -0.1857 -0.5273
-0.2406 -0.28799999 -0.88779998
-0.05418 -0.1393 -0.4253
-0.052839998 -0.2473 -0.4332
-0.1039 -0.24330001 -0.676
0.1039 -0.2264 -0.59560001
0.1203 -0.22139999 -0.60939997
-0.02311 -0.1058 -0.4235
-0.1804 -0.2431 -0.7094
-0.002105 -0.2683 -0.4928
-0.03796 -0.1647 -0.54400003
0.052829999 -0.2457 -0.42210001
0.065640002 -0.2604 -0.78979999
0.062749997 -0.2201 -0.44350001
0.02602 -0.1225 -0.46020001
-0.02995 -0.25819999 -0.66780001
-0.08704 -0.26050001 -0.7572
0.14219999 -0.2832 -0.90280002
0.046730001 -0.25839999 -0.39469999
0.098449998 -0.2176 -0.55400002
0.022609999 -0.27239999 -0.45480001
0.0098930001 -0.2042 -0.68720001
0.065640002 -0.27849999 -0.88080001
-0.19140001 -0.26019999 -0.7938
0.023250001 -0.2027 -0.65880001
0.01097 -0.2089 -0.54689997
0.060880002 -0.2071 -0.48460001
-0.1203 -0.28799999 -0.88779998
0.027790001 -0.1876 -0.62489998
0.2297 -0.26440001 -0.77609998
0.02551 -0.2313 -0.66000003
0.030859999 -0.26809999 -0.54769999
0.02186 -0.21960001 -0.59619999
0.093429998 -0.2588 -0.74949998
-0.029209999 -0.23280001 -0.69459999
-0.00324 -0.2374 -0.80479997
-0.043120001 -0.13850001 -0.4639
-0.060290001 -0.23379999 -0.4086
-0.001419 -0.3075 -0.73890001
0.01155 -0.17640001 -0.61479998
0.043760002 -0.29049999 -0.93519998
0.1477 -0.214 -0.57429999
-0.1477 -0.27489999 -0.85860002
0.0085650003 -0.1061 -0.4298
-0.01472 -0.2366 -0.68169999
0.002903 -0.17730001 -0.87589997
-0.2023 -0.2321 -0.62279999
-0.02736 -0.20739999 -0.54170001
0.14929999 -0.214 -0.5413
-0.00324 -0.1226 -0.75559998
-0.1258 -0.21870001 -0.55930001
0.02647 -0.15530001 -0.53930002
-0.0052149999 -0.2802 -0.59710002
-0.0079880003 -0.2793 -0.73019999
-0.03277 -0.2017 -0.63169998
-0.04744 -0.2423 -0.54229999
-0.1476 -0.27950001 -0.88059998
-0.00047900001 -0.29589999 -0.53210002
0.082039997 -0.2198 -0.56449997
-0.092969999 -0.2121 -0.56379998
-0.062639996 -0.1992 -0.4709
-0.02214 -0.2656 -0.69770002
-0.0053349999 -0.14040001 -0.52079999
0.065640002 -0.25099999 -0.71249998
0.0054839998 -0.2904 -0.93529999
0.055319998 -0.1494 -0.44490001
0.032579999 -0.25150001 -0.71240002
-0.071089998 -0.2141 -0.53719997
-0.02733 -0.28999999 -0.93540001
-0.1312 -0.26699999 -0.82620001
0.039310001 -0.25099999 -0.60229999
7.5000004e-05 -0.2793 -0.46039999
0.1313 -0.25569999 -0.73460001
0.068659998 -0.1882 -0.40599999
0.065870002 -0.1937 -0.44890001
0.16410001 -0.25099999 -0.71249998
0.076569997 -0.2245 -0.58660001
0.05291 -0.1778 -0.50910002
0.082039997 -0.2406 -0.66320002
0.038290001 -0.25369999 -0.76270002
0.24609999 -0.2577 -0.78219998
-0.043740001 -0.28330001 -0.86570001
-0.0156 -0.2423 -0.72079998
-0.1472 -0.2102 -0.55540001
0.01095 -0.2728 -0.85350001
0.0060919998 -0.1947 -0.66540003
-0.01501 -0.25600001 -0.78740001
-0.016419999 -0.27540001 -0.38999999
-0.0164 -0.211 -0.52280003
0.050790001 -0.2079 -0.56279999
-0.00324 -0.2101 -0.74470001
0.003237 -0.1062 -0.82120001
-0.00324 -0.1882 -0.72280002
0.03009 -0.26820001 -0.4932
-0.0032579999 -0.1171 -0.55330002
-0.01048 -0.29269999 -0.94770002
-0.02844 -0.27059999 -0.52319998
-0.048560001 -0.29269999 -0.94709998
-0.1696 -0.28619999 -0.9131
0.0032520001 -0.1172 -0.61330003
0.1149 -0.29589999 -0.92559999
0.0030710001 -0.05697 -0.78839999
0.1149 -0.25960001 -0.7859
-0.032680001 -0.18359999 -0.5988
0.186 -0.2359 -0.67820001
0.076590002 -0.25 -0.74440002
0.17 -0.2481 -0.73610002
-0.09843 -0.27590001 -0.83060002
-0.16949999 -0.266 -0.8211
-0.2297 -0.25319999 -0.72289997
0.1477 -0.24330001 -0.71340001
0.2352 -0.24330001 -0.71340001
0.2297 -0.26930001 -0.79949999
0.0114 -0.2369 -0.64560002
-0.1148 -0.2843 -0.90810001
-0.2238 -0.2377 -0.6494
-0.065619998 -0.23800001 -0.68589997
0.032820001 -0.28209999 -0.89770001
-0.0054290001 -0.25569999 -0.73460001
-0.021430001 -0.2369 -0.64560002
0.1203 -0.26699999 -0.82090002
-0.1859 -0.22669999 -0.63129997
0.046629999 -0.1837 -0.54729998
-0.0427 -0.23469999 -0.58249998
0.20829999 -0.2369 -0.64560002
0.2242 -0.25569999 -0.73460001
-0.01464 -0.27720001 -0.51440001
-0.038679998 -0.26480001 -0.39109999
-0.26530001 -0.2608 -0.78789997
-0.0054540001 -0.2764 -0.87040001
0.01942 -0.26589999 -0.70670003
0.04377 -0.27340001 -0.85339999
-0.1258 -0.2295 -0.64560002
-0.044690002 -0.184 -0.55769998
0.0056830002 -0.15109999 -0.54820001
0.03159 -0.1452 -0.50620002
0.0055419998 -0.1162 -0.45950001
-0.0049000001 -0.37419999 -0.66259998
0.060550001 -0.1564 -0.42969999
0.17 -0.2208 -0.56900001
0.00257 -0.12809999 -0.6681
0.0053369999 -0.2764 -0.42750001
0.1971 -0.27070001 -0.84369999
-0.022779999 -0.2494 -0.69010001
0.0027369999 -0.20460001 -0.82669997
0.077030003 -0.2036 -0.52429998
-0.00324 -0.1499 -0.87589997
-0.00324 -0.089780003 -0.6681
-0.09843 -0.26019999 -0.7938
0.16949999 -0.22220001 -0.61330003
-0.14219999 -0.29480001 -0.92030001
0.002238 -0.1992 -0.81029999
-0.00324 -0.1445 -0.7173
0.003237 -0.12809999 -0.7173
0.2078 -0.2483 -0.69950002
0.003237 -0.12809999 -0.5697
-0.2149 -0.28819999 -0.9199
0.0023620001 -0.2264 -0.77209997
0.043949999 -0.20630001 -0.542
0.1039 -0.25470001 -0.76249999
-0.0054100002 -0.2766 -0.5478
-0.092969999 -0.2085 -0.54699999
-0.1203 -0.27020001 -0.80339998
0.038180001 -0.21359999 -0.63050002
0.175 -0.28709999 -0.88380003
-0.071079999 -0.25369999 -0.76270002
-0.1367 -0.27759999 -0.83850002
-0.1969 -0.2272 -0.59939998
0.0253 -0.26969999 -0.57520002
0.041420002 -0.2604 -0.433
-0.042399999 -0.25749999 -0.4786
0.045079999 -0.25389999 -0.47139999
0.19140001 -0.26249999 -0.76709998
-0.01058 -0.26280001 -0.81379998
0.058559999 -0.1776 -0.4765
-0.24609999 -0.25470001 -0.7665
0.1805 -0.26449999 -0.80919999
-0.0030799999 -0.38350001 -0.69459999
0.1203 -0.2474 -0.69559997
-0.1094 -0.2217 -0.60939997
0.2133 -0.2748 -0.86269999
-0.054680001 -0.26519999 -0.77990001
0.2024 -0.29370001 -0.91509998
-0.01636 -0.2321 -0.741
-0.01747 -0.27360001 -0.42199999
-0.00324 -0.2101 -0.77749997
0.003237 -0.1226 -0.81029999
-0.1855 -0.2588 -0.74949998
0.1367 -0.25760001 -0.77670002
0.1859 -0.23010001 -0.65100002
-0.03382 -0.1375 -0.4835
0.01014 -0.27790001 -0.5424
-0.2527 -0.24439999 -0.7033
0.02479 -0.2466 -0.73549998
0.02778 -0.22239999 -0.57669997
-0.0031119999 -0.2534 -0.83209997
0.003237 -0.12809999 -0.68449998
-0.098420002 -0.28439999 -0.87099999
-0.00324 -0.2101 -0.85949999
-0.00324 -0.095250003 -0.78839999
0.003237 -0.12809999 -0.73369998
0.01506 -0.1441 -0.53060001
0.1258 -0.26339999 -0.80400002
-0.054699998 -0.2324 -0.65859997
-0.027170001 -0.1706 -0.58219999
0.1313 -0.24510001 -0.72229999
-0.16410001 -0.23 -0.6455
-0.1477 -0.252 -0.75480002
0.1477 -0.2245 -0.58660001
-0.1091 -0.2985 -0.93769997
-0.16410001 -0.27739999 -0.87019998
-0.08749 -0.27959999 -0.88599998
0.06078 -0.199 -0.5126
0.060169999 -0.16419999 -0.45289999
0.02283 -0.16680001 -0.5808
0.01016 -0.2798 -0.65719998
0.005498 -0.21780001 -0.59109998
-0.061409999 -0.22130001 -0.42210001
-0.0021180001 -0.1752 -0.90009999
-0.037730001 -0.2465 -0.68489999
0.1367 -0.2186 -0.59640002
-0.016930001 -0.19220001 -0.6476
-0.02733 -0.29480001 -0.92030001
-0.01595 -0.2807 -0.85339999
0.2023 -0.22139999 -0.60939997
-0.034000002 -0.22130001 -0.65100002
0.1039 -0.2929 -0.91109997
0.038589999 -0.2588 -0.5151
-0.16410001 -0.2902 -0.89829999
-0.058060002 -0.1947 -0.50889999
0.0043600001 -0.21529999 -0.71719998
-0.025119999 -0.1137 -0.44240001
-0.1258 -0.23559999 -0.6728
0.1367 -0.2367 -0.68220001
-0.028100001 -0.2703 -0.53890002
-0.06041 -0.16670001 -0.44190001
-0.023189999 -0.1004 -0.40720001
-0.16410001 -0.25479999 -0.7306
0.19140001 -0.2606 -0.79369998
-0.2649 -0.25960001 -0.7723
-0.065619998 -0.2483 -0.69950002
0.01174 -0.2748 -0.74229997
-0.04992 -0.2148 -0.5212
-0.041099999 -0.1522 -0.50840002
-0.2406 -0.2624 -0.80419999
-0.00324 -0.084310003 -0.69550002
0.0095910002 -0.25189999 -0.76910001
0.017650001 -0.22490001 -0.71380001
-0.00324 -0.1882 -0.78299999
0.003237 -0.062430002 -0.6408
0.098439999 -0.26620001 -0.81699997
0.043760002 -0.24699999 -0.53659999
-0.01093 -0.206 -0.53659999
0.002238 -0.17730001 -0.69
0.0020409999 -0.30860001 -0.5697
-0.1476 -0.2357 -0.6728
0.049150001 -0.29480001 -0.94989997
0.1531 -0.2464 -0.69050002
0.2133 -0.2683 -0.79439998
-0.063919999 -0.226 -0.3946
0.0101 -0.15719999 -0.56910002
0.031539999 -0.2536 -0.66259998
0.03283 -0.2764 -0.87040001
-0.021880001 -0.28330001 -0.90280002
0.092969999 -0.24160001 -0.70550001
0.032880001 -0.26930001 -0.46579999
-0.1586 -0.2474 -0.69559997
0.033190001 -0.26930001 -0.44389999
-0.06078 -0.2075 -0.4851
-0.08202 -0.22480001 -0.62349999
0.037670001 -0.18979999 -0.58539999
0.051729999 -0.1602 -0.4772
-0.02324 -0.1592 -0.56050003
0.044119999 -0.23270001 -0.66329998
-0.053619999 -0.169 -0.48249999
0.026219999 -0.2492 -0.68129998
0.021910001 -0.27469999 -0.60250002
0.043230001 -0.244 -0.57489997
0.063060001 -0.1508 -0.4161
-0.049309999 -0.22499999 -0.62349999
0.01531 -0.27559999 -0.62440002
-0.04329 -0.26989999 -0.83999997
-0.002139 -0.29530001 -0.56019998
0.02272 -0.2194 -0.69559997
-0.175 -0.25389999 -0.7586
0.075580001 -0.20029999 -0.50599998
-0.1034 -0.27079999 -0.84380001
-0.042169999 -0.2103 -0.5733
-0.19140001 -0.2854 -0.91329998
0.098449998 -0.2395 -0.65789998
0.027349999 -0.27020001 -0.80339998
-0.04913 -0.17129999 -0.51719999
-0.082029998 -0.2163 -0.58200002
0.043639999 -0.14390001 -0.4826
0.082050003 -0.29589999 -0.92559999
-0.2078 -0.22750001 -0.6354
-0.1531 -0.2198 -0.56449997
0.16410001 -0.27079999 -0.8391
0.049219999 -0.2568 -0.73979998
-0.054680001 -0.2929 -0.91109997
0.033020001 -0.2667 -0.40549999
0.071549997 -0.2377 -0.6494
-0.036120001 -0.26289999 -0.50059998
-0.008746 -0.1485 -0.54070002
-0.08749 -0.2406 -0.66320002
-0.26519999 -0.26879999 -0.83139998
-0.2133 -0.26699999 -0.82620001
-0.20190001 -0.2482 -0.736
-0.01094 -0.27739999 -0.68849999
0.21879999 -0.2843 -0.90810001
-0.034699999 -0.24879999 -0.6239
-0.01036 -0.2764 -0.47009999
0.076569997 -0.24330001 -0.676
0.2137 -0.25960001 -0.75330001
0.2078 -0.2321 -0.62279999
0.2466 -0.2481 -0.73619998
0.0024610001 -0.2807 -0.69809997
-0.06583 -0.1675 -0.41620001
2.4999999e-05 -0.2068 -0.69679999
-0.09296 -0.2491 -0.7033
0.0065279999 -0.2633 -0.76169997
0.175 -0.2394 -0.69499999
-0.00324 -0.139 -0.82120001
0.0029770001 -0.12809999 -0.62989998
0.003237 -0.15539999 -0.67900002
0.003237 -0.1992 -0.84859997
-0.16949999 -0.25099999 -0.71249998
-0.1805 -0.27289999 -0.81639999
0.0054350002 -0.1081 -0.44310001
0.003237 -0.067900002 -0.82120001
0.003237 -0.18269999 -0.76109999
0.065640002 -0.26249999 -0.76709998
-0.006141 -0.1656 -0.58710003
-0.02572 -0.26879999 -0.58249998
-0.054669999 -0.2764 -0.87040001
-0.054090001 -0.1321 -0.41209999
-0.003482 -0.32069999 -0.59570003
0.06882 -0.1989 -0.41639999
0.038290001 -0.26359999 -0.77219999
-0.087269999 -0.2044 -0.52789998
-0.2297 -0.2385 -0.68989998
-0.1367 -0.28709999 -0.88380003
-0.00324 -0.062430002 -0.70090002
-0.14219999 -0.2491 -0.7033
-0.1805 -0.24420001 -0.68000001
0.087509997 -0.27020001 -0.80339998
0.093000002 -0.2455 -0.72229999
-0.1969 -0.2395 -0.65789998
-0.0054649999 -0.21969999 -0.60159999
-0.032370001 -0.2132 -0.63889998
0.002569 -0.067950003 -0.6681
0.2078 -0.2798 -0.84890002
-0.02736 -0.1866 -0.62059999
-0.1148 -0.236 -0.64109999
-0.059700001 -0.2588 -0.74949998
-0.1969 -0.27509999 -0.82679999
-0.001049 -0.34869999 -0.66689998
0.175 -0.24250001 -0.67220002
-0.1367 -0.2472 -0.7274
-0.1477 -0.2219 -0.60930002
-0.01457 -0.12639999 -0.4806
0.047219999 -0.1724 -0.52560002
-0.043740001 -0.26359999 -0.77219999
-0.03015 -0.26840001 -0.44569999
0.05469 -0.28709999 -0.88380003
0.050050002 -0.199 -0.5316
-0.1586 -0.29370001 -0.91509998
0.076569997 -0.2863 -0.88
-0.20739999 -0.24250001 -0.67229998
-0.04831 -0.12819999 -0.43220001
-0.2078 -0.27849999 -0.88080001
-0.04504 -0.1728 -0.53600001
0.01643 -0.2242 -0.6182
0.1367 -0.22139999 -0.60949999
-0.015939999 -0.23999999 -0.7518
0.24609999 -0.2798 -0.84890002
-0.1203 -0.26519999 -0.81730002
0.040520001 -0.26199999 -0.4876
-0.1586 -0.24609999 -0.72210002
-0.001942 -0.031959999 -0.7119
-0.05655 -0.23549999 -0.4601
-0.0054569999 -0.20029999 -0.50940001
0.01245 -0.27450001 -0.38350001
-0.02736 -0.2006 -0.50929999
-0.01027 -0.2379 -0.76529998
0.0057569998 -0.13349999 -0.51849997
0.043760002 -0.27590001 -0.83060002
0.049679998 -0.28240001 -0.86110002
-0.0056540002 -0.183 -0.65090001
-0.02812 -0.26710001 -0.62239999
0.00045799999 -0.215 -0.54170001
-0.066509999 -0.19230001 -0.43650001
-0.0030090001 -0.3863 -0.66750002
0.02885 -0.1859 -0.60960001
-0.02146 -0.26969999 -0.66570002
0.043760002 -0.27180001 -0.81120002
-0.032809999 -0.25299999 -0.75880003
0.175 -0.255 -0.76639998
-0.020740001 -0.27410001 -0.63709998
-0.03994 -0.26140001 -0.41479999
-0.1258 -0.2227 -0.61320001
0.01097 -0.23999999 -0.69489998
2.2e-05 -0.169 -0.59810001
0.043809999 -0.15620001 -0.50080001
-0.2078 -0.26609999 -0.78390002
-0.0054560001 -0.26809999 -0.83149999
-0.0043850001 -0.28060001 -0.74260002
0.042720001 -0.1292 -0.44580001
-0.004708 -0.33590001 -0.597
-0.049210001 -0.26519999 -0.81730002
-0.1367 -0.2385 -0.68589997
0.257 -0.25549999 -0.77170002
-0.02187 -0.29949999 -0.94239998
0.03836 -0.18099999 -0.57599998
-0.2242 -0.28049999 -0.88999999
0.098439999 -0.22059999 -0.6056
0.003237 -0.1445 -0.79939997
-0.00324 -0.221 -0.79939997
0.1148 -0.236 -0.64109999
-0.025219999 -0.26339999 -0.68440002
0.003237 -0.084310003 -0.78839999
-0.0054629999 -0.29120001 -0.9034
0.003237 -0.051509999 -0.81029999
-0.21870001 -0.26249999 -0.76709998
0.21879999 -0.2498 -0.74440002
0.034430001 -0.1078 -0.40580001
0.026699999 -0.27059999 -0.47670001
-0.003178 -0.1184 -0.53289998
0.1313 -0.2244 -0.62370002
0.1586 -0.28659999 -0.91720003
-0.25299999 -0.28729999 -0.88919997
-0.1531 -0.28510001 -0.90789998
0.0060629998 -0.2368 -0.77789998
-0.1859 -0.2387 -0.68980002
-0.1859 -0.28009999 -0.88590002
0.020570001 -0.18889999 -0.63489997
0.071089998 -0.2094 -0.5151
-0.1312 -0.2349 -0.63590002
0.1367 -0.25029999 -0.74430001
0.003237 -0.1445 -0.58609998
-0.043900002 -0.20640001 -0.53649998
0.082039997 -0.27289999 -0.81639999
0.038729999 -0.1612 -0.52569997
0.01839 -0.27149999 -0.67949998
-0.0055249999 -0.26390001 -0.77219999
0.1036 -0.20280001 -0.52020001
-0.00324 -0.17730001 -0.86500001
-0.00324 -0.20460001 -0.73369998
-0.00324 -0.13349999 -0.77749997
-0.1802 -0.2956 -0.92430001
0.003237 -0.23199999 -0.81580001
-0.049040001 -0.1583 -0.49509999
-0.04335 -0.23720001 -0.64560002
0.002237 -0.17730001 -0.70639998
-0.00324 -0.1882 -0.81580001
0.076580003 -0.25209999 -0.71780002
-0.003239 -0.1882 -0.69
-0.057039998 -0.2158 -0.4932
-0.01093 -0.1041 -0.4224
0.033270001 -0.25960001 -0.75330001
0.1203 -0.2406 -0.66320002
-0.01093 -0.21870001 -0.55930001
1.9999999e-05 -0.2129 -0.56910002
0.1864 -0.2262 -0.6322
0.14219999 -0.2739 -0.85879999
-0.1586 -0.27340001 -0.85339999
0.003206 -0.1389 -0.5478
-0.00324 -0.1499 -0.6408
-0.00324 -0.18269999 -0.84859997
0.003237 -0.1226 -0.54229999
-0.1531 -0.27289999 -0.81639999
0.1477 -0.26800001 -0.82599998
0.1096 -0.2051 -0.53200001
-0.1258 -0.26359999 -0.77219999
-0.16949999 -0.24169999 -0.66829997
-0.1258 -0.24609999 -0.72210002
0.049199998 -0.2291 -0.5614
0.01162 -0.24250001 -0.7137
-0.175 -0.27509999 -0.82679999
0.082050003 -0.25870001 -0.78189999
0.065410003 -0.21699999 -0.41639999
-0.00064400001 -0.34509999 -0.60339999
-5.9999998e-05 -0.27790001 -0.58060002
0.065559998 -0.16680001 -0.42649999
-0.027349999 -0.26719999 -0.78920001
3.1e-05 -0.040350001 -0.79629999
-0.13420001 -0.2079 -0.53060001
-0.04944 -0.2342 -0.55059999
-0.001925 -0.31439999 -0.72939998
-0.03111 -0.1128 -0.4321
-0.1367 -0.2529 -0.75880003
0.031649999 -0.26269999 -0.60280001
0.1094 -0.2156 -0.58219999
0.060740001 -0.23109999 -0.38940001
-0.038279999 -0.28799999 -0.88779998
0.026900001 -0.2559 -0.72829998
0.1586 -0.25350001 -0.75870001
0.19140001 -0.2499 -0.70730001
0.0054620001 -0.25479999 -0.7306
0.021159999 -0.27419999 -0.54210001
-0.1969 -0.2208 -0.58590001
0.19140001 -0.22220001 -0.61330003
-0.19140001 -0.26440001 -0.81339997
0.026280001 -0.26499999 -0.67320001
-0.0059870002 -0.2209 -0.74150002
0.060169999 -0.24250001 -0.67220002
0.04758 -0.19410001 -0.55839998
0.064230002 -0.17749999 -0.44909999
-0.038970001 -0.1883 -0.57609999
0.032820001 -0.28799999 -0.88779998
0.045049999 -0.23270001 -0.60820001
0.05291 -0.2421 -0.48210001
-0.01093 -0.27169999 -0.84829998
0.05926 -0.14 -0.4154
-0.1477 -0.2287 -0.64029998
-0.1094 -0.26699999 -0.82620001
-0.257 -0.2798 -0.84890002
0.1094 -0.2483 -0.69950002
-0.048810001 -0.23019999 -0.60829997
0.1969 -0.2464 -0.69050002
0.0054759998 -0.28080001 -0.88990003
-0.054030001 -0.2066 -0.55290002
-0.022290001 -0.2079 -0.6807
0.14219999 -0.23019999 -0.61390001
-0.1039 -0.21870001 -0.55930001
0.054000001 -0.206 -0.55220002
-0.038789999 -0.161 -0.53350002
0.0033829999 -0.1173 -0.62440002
-0.038079999 -0.2422 -0.65890002
0.043749999 -0.27869999 -0.84369999
-0.02641 -0.2703 -0.5018
-0.20739999 -0.2386 -0.65329999
0.038740002 -0.2489 -0.73989999
0.1969 -0.27559999 -0.86659998
-0.1855 -0.27079999 -0.84380001
-0.003023 -0.03528 -0.73369998
0.001288 -0.34130001 -0.62669998
-0.00324 -0.1062 -0.85399997
-0.00324 -0.12809999 -0.55330002
0.16949999 -0.26519999 -0.77990001
-0.2133 -0.25659999 -0.77689999
0.186 -0.2764 -0.87040001
0.003237 -0.06244 -0.67900002
0.054699998 -0.25099999 -0.71249998
0.049229998 -0.24250001 -0.67220002
-0.09843 -0.2406 -0.66320002
-0.09843 -0.2256 -0.59170002
-1e-06 -0.2854 -0.91329998
0.002237 -0.067929998 -0.72829998
-0.1201 -0.2104 -0.55510002
0.0255 -0.27219999 -0.3784
-0.00324 -0.13349999 -0.78839999
-0.2078 -0.2529 -0.75880003
-0.1477 -0.24609999 -0.72210002
0.21879999 -0.26440001 -0.77609998
-0.00324 -0.1609 -0.85399997
-0.1586 -0.23379999 -0.63069999
0.1586 -0.26800001 -0.82599998
-0.175 -0.2902 -0.89829999
0.1586 -0.22220001 -0.61330003
-0.065669999 -0.2164 -0.40169999
-0.0164 -0.22059999 -0.6056
-0.1586 -0.271 -0.80720001
-0.082029998 -0.213 -0.53200001
0.01643 -0.2216 -0.60540003
-0.027349999 -0.2209 -0.60549998
-0.02124 -0.2568 -0.704
0.056469999 -0.22669999 -0.4659
0.01743 -0.1934 -0.65750003
-0.059689999 -0.26989999 -0.83999997
0.06566 -0.29179999 -0.93940002
-0.018650001 -0.1868 -0.63129997
0.14219999 -0.27200001 -0.84820002
0.1586 -0.27739999 -0.87559998
-0.054680001 -0.24529999 -0.72229999
-0.060139999 -0.18350001 -0.47150001
0.1313 -0.2464 -0.69050002
-0.05311 -0.2455 -0.39660001
0.2352 -0.27509999 -0.82679999
-0.1039 -0.26519999 -0.77990001
0.032820001 -0.2586 -0.78609997
0.2078 -0.25940001 -0.79000002
0.040690001 -0.193 -0.5758
0.14219999 -0.25400001 -0.72670001
0.1039 -0.2291 -0.60860002
-0.040709998 -0.26199999 -0.4912
-0.1583 -0.29660001 -0.9296
0.23559999 -0.28240001 -0.86110002
0.1893 -0.2228 -0.57920003
0.03066 -0.233 -0.6893
-0.2297 -0.26609999 -0.78390002
0.027319999 -0.21349999 -0.56900001
-0.045869999 -0.25420001 -0.43669999
-0.2406 -0.26609999 -0.78390002
-0.021840001 -0.2279 -0.64050001
0.05373 -0.1301 -0.41
-0.02791 -0.2278 -0.68360001
-0.0021250001 -0.37990001 -0.65450001
-0.003276 -0.1007 -0.5697
0.0034380001 -0.243 -0.79939997
0.00178 -0.16590001 -0.90170002
-0.018449999 -0.27610001 -0.44839999
-0.070859998 -0.2045 -0.52780002
0.038720001 -0.215 -0.54170001
0.052239999 -0.25189999 -0.3892
0.050209999 -0.2507 -0.4003
-0.00324 -0.139 -0.70639998
-0.003276 -0.12819999 -0.58609998
-0.0054560001 -0.29370001 -0.91509998
0.003237 -0.15539999 -0.7173
0.003237 -0.067900002 -0.78839999
0.039949998 -0.25409999 -0.54259998
-0.037769999 -0.1717 -0.55119997
-0.01092 -0.2244 -0.62370002
-0.0114 -0.25490001 -0.72659999
-0.087499999 -0.2728 -0.85350001
0.2297 -0.266 -0.8211
-0.0328 -0.2879 -0.92500001
0.26100001 -0.25389999 -0.76270002
-0.08202 -0.2094 -0.5151
-0.071089998 -0.2094 -0.5151
0.2406 -0.26820001 -0.83149999
0.1477 -0.26530001 -0.8132
-0.00324 -0.18269999 -0.82669997
-0.01089 -0.2405 -0.70020002
-0.02187 -0.29210001 -0.9073
0.056219999 -0.2351 -0.4711
-0.0053030001 -0.29789999 -0.95429999
-0.02733 -0.26519999 -0.81730002
0.04611 -0.25569999 -0.41069999
0.055599999 -0.1679 -0.48190001
0.0027369999 -0.18269999 -0.7173
0.2516 -0.27169999 -0.84829998
0.002594 -0.3901 -0.69010001
0.1039 -0.2141 -0.53719997
0.038010001 -0.19509999 -0.59359998
-0.00324 -0.1992 -0.82120001
-0.01093 -0.2395 -0.65789998
0.087520003 -0.21179999 -0.56389999
-0.072279997 -0.2015 -0.50239998
0.028650001 -0.1442 -0.51539999
0.1039 -0.24420001 -0.68000001
-0.01092 -0.2348 -0.67299998
-0.032400001 -0.19949999 -0.62230003
-0.1094 -0.2331 -0.6627
0.1969 -0.28600001 -0.91320002
-0.1094 -0.23019999 -0.61390001
0.1805 -0.2748 -0.86269999
-0.14219999 -0.2545 -0.7665
0.002786 -0.057629999 -0.61919999
0.14219999 -0.2405 -0.70029998
0.054730002 -0.16249999 -0.46779999
0.19140001 -0.26629999 -0.82099998
-0.16410001 -0.26350001 -0.80940002
-0.1476 -0.2929 -0.91109997
-0.065619998 -0.21799999 -0.59100002
-0.098449998 -0.2211 -0.60549998
-0.049219999 -0.2854 -0.91329998
0.087509997 -0.2491 -0.7033
0.1313 -0.2405 -0.70029998
0.02011 -0.1451 -0.5226
0.2297 -0.25099999 -0.71249998
-0.08749 -0.292 -0.9073
-0.00324 -0.221 -0.77749997
0.033810001 -0.16 -0.54299998
-0.039590001 -0.24869999 -0.56879997
-0.092990004 -0.27669999 -0.87040001
-0.1258 -0.28060001 -0.8858
0.02682 -0.29519999 -0.95310003
0.01474 -0.27689999 -0.4271
0.1805 -0.25099999 -0.71249998
-0.01518 -0.27509999 -0.67040002
0.065679997 -0.2025 -0.51980001
-0.000228 -0.1019 -0.4192
-0.1167 -0.29480001 -0.94169998
0.098899998 -0.26050001 -0.7572
-0.26230001 -0.28189999 -0.87180001
3.0000001e-06 -0.28799999 -0.88779998
-0.058990002 -0.1987 -0.48280001
0.2235 -0.28639999 -0.91579998
0.1208 -0.2588 -0.74949998
-0.1367 -0.2784 -0.87540001
0.1258 -0.27289999 -0.81639999
-0.01474 -0.2753 -0.73500001
-0.060150001 -0.2264 -0.59560001
0.037280001 -0.26339999 -0.47130001
0.02189 -0.23019999 -0.61390001
-0.2023 -0.2201 -0.60149997
-0.01073 -0.2771 -0.61750001
-0.03255 -0.26879999 -0.3856
0.092969999 -0.28940001 -0.93000001
0.14219999 -0.28130001 -0.89389998
0.175 -0.2375 -0.68610001
0.055349998 -0.2437 -0.43540001
0.01939 -0.22750001 -0.72229999
-0.0164 -0.2272 -0.59939998
-0.01535 -0.2008 -0.67180002
-0.01086 -0.249 -0.7033
-0.14219999 -0.2176 -0.55400002
-0.021400001 -0.26499999 -0.70779997
-0.018169999 -0.1672 -0.588
-0.02733 -0.28330001 -0.86570001
0.027249999 -0.2057 -0.65130001
-0.19140001 -0.27289999 -0.81639999
-0.1805 -0.26440001 -0.81339997
0.04332 -0.25440001 -0.52579999
0.092969999 -0.29139999 -0.93940002
-0.26109999 -0.26140001 -0.76200002
0.0060350001 -0.14309999 -0.54040003
-0.042830002 -0.2027 -0.57800001
0.02373 -0.2193 -0.68669999
-0.16949999 -0.28310001 -0.89749998
-0.1691 -0.28150001 -0.85729998
0.065849997 -0.2122 -0.4332
0.0056130001 -0.27720001 -0.4822
-0.16949999 -0.28439999 -0.87099999
0.038740002 -0.2807 -0.85339999
0.087420002 -0.2863 -0.88020003
0.02839 -0.25839999 -0.67869997
0.26210001 -0.26440001 -0.81339997
-0.25659999 -0.28240001 -0.86110002
0.0054759998 -0.29859999 -0.93839997
0.175 -0.271 -0.80720001
-0.035700001 -0.1077 -0.40979999
0.01605 -0.27669999 -0.4386
0.01095 -0.228 -0.60339999
-0.054230001 -0.2489 -0.73989999
-0.02251 -0.27110001 -0.3829
0.076569997 -0.2014 -0.51450002
0.02588 -0.27320001 -0.4876
0.054839998 -0.18610001 -0.51029998
0.016039999 -0.1069 -0.4339
-0.03562 -0.18440001 -0.59079999
-0.000344 -0.042229999 -0.64700001
-0.071089998 -0.2212 -0.60540003
-0.02644 -0.1401 -0.5025
-0.055380002 -0.2427 -0.38209999
0.003237 -0.1007 -0.68449998
0.01087 -0.2753 -0.7507
-0.052540001 -0.1539 -0.4612
-0.00324 -0.13349999 -0.73369998
-0.00324 -0.084310003 -0.78299999
-0.043740001 -0.25659999 -0.77689999
-0.00324 -0.12809999 -0.53689998
-0.01166 -0.22400001 -0.72890002
0.0030700001 -0.1445 -0.6462
-0.054680001 -0.27169999 -0.84829998
0.0030700001 -0.17730001 -0.80479997
0.043680001 -0.3003 -0.94690001
0.036809999 -0.25470001 -0.58039999
-0.00324 -0.17730001 -0.88139999
0.002903 -0.1117 -0.67360002
-0.00324 -0.1937 -0.83219999
-0.05776 -0.1725 -0.4763
0.022390001 -0.2316 -0.7022
0.032820001 -0.29949999 -0.94239998
-0.058359999 -0.1543 -0.43360001
-0.051180001 -0.24860001 -0.4039
0.043579999 -0.1762 -0.54629999
0.0027369999 -0.17730001 -0.81580001
-0.00324 -0.067900002 -0.65170002
-0.00066700001 -0.31389999 -0.55830002
-0.005773 -0.1445 -0.54710001
0.01718 -0.26879999 -0.74419999
0.04366 -0.21070001 -0.58499998
0.027310001 -0.2097 -0.55089998
0.056759998 -0.16590001 -0.46079999
-0.03475 -0.2465 -0.64529997
-0.035610002 -0.26719999 -0.46399999
0.05706 -0.2413 -0.42730001
0.01035 -0.215 -0.7119
0.050129998 -0.1265 -0.42300001
-0.00324 -0.1937 -0.70090002
-0.0031359999 -0.046020001 -0.65710002
-0.0095490003 -0.27559999 -0.52410001
0.257 -0.26440001 -0.77609998
-0.1904 -0.29170001 -0.92640001
-0.1472 -0.28240001 -0.86110002
-0.054299999 -0.2437 -0.44010001
0.1313 -0.2349 -0.63590002
0.060619999 -0.2489 -0.73989999
0.20829999 -0.2386 -0.65329999
-0.2352 -0.2665 -0.82099998
0.043480001 -0.1822 -0.55919999
0.043760002 -0.28709999 -0.88380003
0.038290001 -0.25319999 -0.72289997
-0.19140001 -0.28709999 -0.88380003
0.038199998 -0.20819999 -0.54699999
0.1969 -0.28369999 -0.90270001
0.076580003 -0.27849999 -0.88080001
-0.071079999 -0.25659999 -0.77689999
0.2078 -0.2405 -0.70029998
-0.039700001 -0.2622 -0.39840001
-0.04456 -0.25979999 -0.39230001
0.092979997 -0.25299999 -0.75470001
0.02863 -0.1105 -0.4235
0.14579999 -0.29449999 -0.93610001
0.098449998 -0.2348 -0.67299998
0.060169999 -0.2348 -0.67299998
-0.04287 -0.1594 -0.51059997
-0.1367 -0.25209999 -0.71780002
0.1586 -0.25209999 -0.71780002
0.1203 -0.26230001 -0.79869998
-0.14219999 -0.26140001 -0.76179999
-0.00324 -0.1663 -0.85949999
-0.00324 -0.1992 -0.7392
-0.00324 -0.139 -0.78299999
-0.03263 -0.18870001 -0.60979998
0.065640002 -0.2406 -0.66320002
0.092979997 -0.2406 -0.66320002
0.0055010002 -0.21430001 -0.57429999
0.1312 -0.2199 -0.60159999
0.1367 -0.2463 -0.72759998
0.2516 -0.27869999 -0.84369999
-0.1148 -0.26719999 -0.78909999
0.1367 -0.27180001 -0.81120002
-0.21870001 -0.26809999 -0.83149999
-0.066299997 -0.1772 -0.4235
0.058030002 -0.1375 -0.4064
-0.00324 -0.1663 -0.7173
-0.016410001 -0.2843 -0.90810001
-0.082029998 -0.23379999 -0.63069999
0.21879999 -0.2568 -0.73979998
0.2516 -0.25659999 -0.77689999
0.2406 -0.27180001 -0.81120002
0.16949999 -0.24529999 -0.68519998
-0.0118 -0.22939999 -0.7464
0.05469 -0.2208 -0.5535
0.032510001 -0.26440001 -0.53130001
-0.09296 -0.26140001 -0.76179999
-0.060789999 -0.1868 -0.4612
-0.051690001 -0.1728 -0.50880003
-0.1094 -0.2406 -0.66320002
0.036049999 -0.2674 -0.4161
0.021880001 -0.2798 -0.84890002
-0.065200001 -0.215 -0.54170001
0.054159999 -0.14380001 -0.4497
0.02733 -0.30050001 -0.94730002
-0.06267 -0.2307 -0.389
0.0054500001 -0.29390001 -0.95120001
-0.1477 -0.236 -0.64109999
-0.0021800001 -0.35089999 -0.6419
0.04304 -0.25749999 -0.46039999
-0.0051560001 -0.27919999 -0.46579999
0.061949998 -0.2308 -0.40549999
0.25150001 -0.25400001 -0.72670001
0.26140001 -0.25690001 -0.7773
-0.1476 -0.2291 -0.60860002
-0.2507 -0.2499 -0.70749998
-0.048330002 -0.25139999 -0.4294
0.0079650003 -0.1169 -0.46619999
0.016419999 -0.2313 -0.61900002
0.087509997 -0.26359999 -0.77219999
-0.062089998 -0.2304 -0.39989999
-0.1859 -0.23379999 -0.63069999
-0.0049459999 -0.3739 -0.65189999
0.03221 -0.2642 -0.54189998
0.033829998 -0.2419 -0.6358
-0.1094 -0.25209999 -0.71780002
0.02675 -0.2471 -0.67460001
-0.017270001 -0.20299999 -0.6807
0.026350001 -0.2701 -0.50410002
0.001618 -0.39700001 -0.7112
0.025219999 -0.2631 -0.68409997
0.03396 -0.25940001 -0.59719998
0.036759999 -0.26390001 -0.44940001
0.01466 -0.2757 -0.58039999
-0.14219999 -0.27669999 -0.83450001
-0.14219999 -0.28799999 -0.88779998
-0.0328 -0.20370001 -0.4975
0.042720001 -0.2581 -0.44949999
0.01819 -0.27379999 -0.56370002
-0.14219999 -0.24259999 -0.70529997
0.0025289999 -0.31380001 -0.5643
-0.2297 -0.2588 -0.78600001
0.09843 -0.28690001 -0.91710001
-0.1859 -0.24330001 -0.676
8e-06 -0.29210001 -0.9073
0.2242 -0.2764 -0.87040001
-0.054680001 -0.26440001 -0.81339997
0.049229998 -0.27669999 -0.83450001
0.026559999 -0.27059999 -0.44389999
-0.03283 -0.2001 -0.5054
-0.1258 -0.271 -0.80720001
0.1969 -0.2383 -0.68989998
0.21879999 -0.25369999 -0.76270002
0.04377 -0.2545 -0.7665
-0.26550001 -0.26230001 -0.7992
0.1919 -0.2807 -0.85339999
-0.2133 -0.292 -0.9073
0.049229998 -0.27509999 -0.82679999
0.082039997 -0.271 -0.80720001
0.038290001 -0.28130001 -0.89389998
0.066079997 -0.2369 -0.64560002
-0.038260002 -0.2538 -0.7626
-0.032749999 -0.30039999 -0.94700003
-0.097970001 -0.26989999 -0.83999997
0.0031950001 -0.24240001 -0.8646
0.0085920002 -0.13940001 -0.51719999
-0.15809999 -0.27079999 -0.84380001
0.12620001 -0.25960001 -0.75330001
-0.1477 -0.24429999 -0.71310002
-0.1969 -0.266 -0.8211
-0.1363 -0.2377 -0.6494
-0.026769999 -0.2385 -0.64920002
0.01043 -0.26440001 -0.75650001
-0.054219998 -0.29179999 -0.94389999
0.039140001 -0.2651 -0.41069999
-0.026939999 -0.2075 -0.65509999
0.01512 -0.2757 -0.65679997
-0.03221 -0.1627 -0.54610002
0.01117 -0.22589999 -0.62779999
-0.01447 -0.27689999 -0.53560001
0.0091329999 -0.1904 -0.66180003
-0.016070001 -0.1128 -0.45050001
0.022639999 -0.2726 -0.4822
0.02345 -0.27079999 -0.66250002
-0.045990001 -0.23029999 -0.58560002
-0.01023 -0.2341 -0.75150001
-0.043090001 -0.1249 -0.43099999
0.048659999 -0.2466 -0.48289999
0.01685 -0.2203 -0.71780002
-0.041189998 -0.2624 -0.45300001
-0.0035260001 -0.32550001 -0.60170001
-0.036350001 -0.26390001 -0.38550001
-0.0057489998 -0.27779999 -0.59149998
0.0031920001 -0.085369997 -0.57050002
-0.2185 -0.2246 -0.62370002
0.047060002 -0.2474 -0.52029997
0.052069999 -0.24439999 -0.44420001
-0.03994 -0.1534 -0.51419997
-0.034329999 -0.25440001 -0.6074
-0.031629998 -0.1936 -0.62309998
0.0027360001 -0.07339 -0.67900002
-0.057659999 -0.24150001 -0.3946
-0.0031640001 -0.25220001 -0.84810001
0.038589999 -0.26480001 -0.4657
0.01209 -0.2156 -0.71749997
-0.0051060002 -0.1425 -0.52630001
-0.03813 -0.24089999 -0.6164
0.056499999 -0.1604 -0.4553
0.064350002 -0.1612 -0.42730001
0.0026449999 -0.062509999 -0.61339998
0.070550002 -0.1936 -0.40560001
-0.038729999 -0.2014 -0.49790001
0.252 -0.26989999 -0.83999997
0.054990001 -0.2308 -0.47690001
0.042040002 -0.23190001 -0.59140003
0.0394 -0.1664 -0.5341
-0.062919997 -0.205 -0.44420001
-0.0078619998 -0.27970001 -0.72460002
-0.01347 -0.27489999 -0.4183
0.015900001 -0.2423 -0.7173
0.071659997 -0.19589999 -0.3917
-0.0096340002 -0.27399999 -0.7579
0.1969 -0.266 -0.8211
-0.0101 -0.27860001 -0.57520002
0.01373 -0.27509999 -0.55320001
0.0031969999 -0.13339999 -0.53140002
0.16410001 -0.28659999 -0.91710001
0.033119999 -0.26930001 -0.44940001
0.002903 -0.051539999 -0.7119
0.01438 -0.27559999 -0.48719999
-0.00324 -0.1117 -0.67360002
0.003237 -0.1445 -0.82669997
-0.00324 -0.1718 -0.77200001
-0.003239 -0.2429 -0.80479997
-0.00324 -0.1718 -0.66259998
-0.1586 -0.2198 -0.56449997
-0.00324 -0.139 -0.79939997
0.1805 -0.2764 -0.87040001
-0.00324 -0.1937 -0.81580001
0.1426 -0.2377 -0.6494
-0.1148 -0.26519999 -0.81730002
-0.00324 -0.1937 -0.72280002
0.175 -0.26800001 -0.82599998
-0.1367 -0.2349 -0.63590002
-0.00324 -0.1718 -0.86500001
-0.2078 -0.26699999 -0.82620001
0.003237 -0.1171 -0.54229999
0.1039 -0.27200001 -0.84820002
0.19140001 -0.2902 -0.89829999
-0.00324 -0.15539999 -0.6681
0.003237 -0.0515 -0.67360002
-0.0095220003 -0.28009999 -0.74070001
-0.021880001 -0.2071 -0.54180002
0.027349999 -0.20720001 -0.50470001
0.0030700001 -0.0515 -0.78839999
-0.049210001 -0.28330001 -0.86570001
0.087509997 -0.2406 -0.66320002
-0.00324 -0.067900002 -0.67909998
0.043699998 -0.2949 -0.95020002
-0.024250001 -0.26609999 -0.6627
0.01077 -0.28 -0.68419999
0.069490001 -0.1935 -0.41639999
0.01643 -0.21960001 -0.59619999
0.04005 -0.2545 -0.53719997
0.098449998 -0.21870001 -0.55930001
0.1313 -0.2739 -0.85879999
0.175 -0.2405 -0.70029998
0.038970001 -0.26519999 -0.4325
-0.1696 -0.2536 -0.75840002
0.003237 -0.2429 -0.80479997
0.0057899999 -0.2789 -0.6462
0.0033829999 -0.1172 -0.61870003
0.052159999 -0.2518 -0.3946
0.03303 -0.26660001 -0.40009999
0.1859 -0.26519999 -0.77990001
0.003237 -0.23199999 -0.82120001
0.003237 -0.095250003 -0.75010002
-0.1094 -0.2843 -0.90810001
0.2242 -0.25099999 -0.71249998
-0.16949999 -0.2902 -0.89829999
0.16949999 -0.25099999 -0.71249998
-0.16410001 -0.28709999 -0.88380003
0.002903 -0.17730001 -0.87050003
-0.1477 -0.25099999 -0.74949998
-0.033840001 -0.19499999 -0.6178
-0.038210001 -0.1882 -0.588
-0.040479999 -0.2554 -0.53060001
0.1094 -0.2728 -0.85350001
0.0058670002 -0.2633 -0.76700002
-0.2613 -0.26249999 -0.76719999
-0.0054410002 -0.2568 -0.73979998
0.2023 -0.26719999 -0.78909999
-0.1258 -0.24420001 -0.68000001
0.0033829999 -0.1226 -0.62440002
-0.1367 -0.27739999 -0.87019998
0.016030001 -0.2155 -0.70929998
-0.056249999 -0.13689999 -0.41190001
0.2352 -0.27399999 -0.82169998
-0.1859 -0.2256 -0.59170002
0.193 -0.22319999 -0.58279997
-0.033220001 -0.26629999 -0.44209999
0.02877 -0.264 -0.64630002
-0.062579997 -0.18799999 -0.4497
-0.0066650002 -0.28209999 -0.53320003
-0.062270001 -0.19419999 -0.4707
0.0067050001 -0.23549999 -0.77310002
-0.01004 -0.27880001 -0.53680003
-0.052790001 -0.1725 -0.5036
0.003027 -0.2154 -0.88620001
-0.01211 -0.1505 -0.54350001
-0.033920001 -0.1156 -0.4348
-0.02688 -0.29100001 -0.94
0.01308 -0.13850001 -0.5183
-0.036649998 -0.26370001 -0.42930001
0.022910001 -0.1981 -0.65789998
0.008897 -0.177 -0.61860001
-0.2112 -0.29080001 -0.92089999
-0.021880001 -0.236 -0.64109999
0.027620001 -0.25229999 -0.68440002
-0.02578 -0.27250001 -0.4111
0.1071 -0.20290001 -0.51740003
-0.02561 -0.27320001 -0.49849999
0.20209999 -0.29460001 -0.91939998
0.01495 -0.1873 -0.64569998
-0.048500001 -0.23810001 -0.54890001
0.026869999 -0.21789999 -0.6753
-0.1859 -0.22750001 -0.6354
-0.1618 -0.2147 -0.55049998
-0.25979999 -0.2841 -0.87419999
-0.1203 -0.28709999 -0.88380003
0.03627 -0.1077 -0.40939999
-0.0054609999 -0.29210001 -0.9073
-0.1039 -0.211 -0.52280003
-0.19140001 -0.26519999 -0.81730002
0.14219999 -0.25479999 -0.7306
-0.01238 -0.27770001 -0.73710001
0.015699999 -0.27680001 -0.56419998
0.098439999 -0.26530001 -0.8132
-0.098420002 -0.27509999 -0.82679999
0.016419999 -0.22239999 -0.6092
-0.015939999 -0.227 -0.63599998
-0.02472 -0.26800001 -0.62080002
0.0055900002 -0.1091 -0.43939999
0.048799999 -0.20469999 -0.56339997
-0.02193 -0.2093 -0.67720002
-0.02159 -0.27419999 -0.59890002
-0.015629999 -0.2033 -0.67739999
-0.13699999 -0.2097 -0.53219998
0.055399999 -0.15700001 -0.4655
0.023229999 -0.18719999 -0.63330001
-0.056880001 -0.1408 -0.4267
0.02633 -0.25979999 -0.68959999
0.26539999 -0.26030001 -0.77780002
0.036249999 -0.18709999 -0.58609998
-0.033240002 -0.1997 -0.61930001
-0.035009999 -0.1644 -0.5431
0.01153 -0.1068 -0.43020001
-0.05178 -0.24429999 -0.4386
-0.032419998 -0.1375 -0.48609999
0.000726 -0.26809999 -0.49340001
-0.0024900001 -0.34619999 -0.66689998
0.026690001 -0.23119999 -0.66259998
-0.0035590001 -0.3001 -0.95389998
-0.026629999 -0.2705 -0.4914
-0.066699997 -0.1779 -0.4208
0.01095 -0.20640001 -0.50059998
-0.03263 -0.2651 -0.57139999
0.036899999 -0.2642 -0.4111
0.050549999 -0.24240001 -0.4824
