# .PCD v0.7 - Point Cloud Data file format
VERSION 0.7
FIELDS x y z
SIZE 4 4 4
TYPE F F F
COUNT 1 1 1
WIDTH 1654
HEIGHT 1
VIEWPOINT 0 0 0 1 0 0 0
POINTS 1654
DATA ascii
-0.2735 -0.14040001 0.26190001
-0.3391 0.108 0.067809999
-0.46990001 0.1081 0.1252
-0.33309999 0.13429999 0.2254
-0.48140001 -0.1636 0.1697
-0.60659999 0.1353 0.22920001
-0.14300001 -0.095540002 0.6487
-0.6613 0.078419998 0.03568
-0.31720001 0.123 0.1824
-0.97240001 -0.1683 0.126
-0.62879997 -0.1425 0.27739999
-0.39840001 0.13060001 0.1162
-0.54689997 0.1219 0.1785
-0.51410002 0.075269997 -0.01501
-0.52200001 -0.1983 0.1031
-0.70550001 0.1135 0.078730002
-0.55790001 -0.14650001 0.2075
-0.1904 0.1023 0.13339999
-0.1037 -0.047169998 0.2397
-0.72189999 0.09533 0.04214
-0.83939999 -0.1772 0.1389
-0.1805 -0.1921 0.13339999
-0.54689997 -0.1242 0.3001
-0.61199999 0.1388 0.1357
-0.65079999 0.1473 0.15899999
-0.81480002 0.073080003 -0.00655
-0.79299998 0.1705 0.2509
-0.175 0.1097 0.071549997
-0.55229998 0.1568 0.18799999
-0.3608 -0.1619 0.2374
-0.72189999 0.15809999 0.1919
-0.1094 0.1044 0.113
-0.09883 -0.092160001 0.3204
-0.53039998 -0.1472 0.27169999
-0.89139998 0.1149 0.1515
-0.86949998 0.1504 0.1674
-0.62330002 -0.1962 0.1072
-0.4156 0.1714 0.29859999
-0.33360001 0.1621 0.30430001
-0.14219999 0.1725 0.278
-0.66670001 0.1618 0.20469999
-0.2789 0.1093 0.12970001
-0.38240001 0.13429999 0.2254
-0.77600002 0.162 0.20479999
-0.47569999 -0.141 0.30450001
-0.66710001 -0.1226 0.287
-0.1012 -0.035239998 0.3985
-0.91869998 0.1093 0.12970001
-0.071089998 0.1117 0.13869999
-0.68349999 -0.15719999 0.2166
-0.51910001 0.1058 0.1175
-0.1026 -0.073890001 0.26710001
-0.2406 0.096089996 0.087789997
-0.19149999 -0.28569999 0.30360001
-0.8258 0.1026 0.056930002
-0.73830003 0.1473 0.15889999
-0.7766 0.148 0.27720001
-0.20810001 -0.29550001 0.37130001
-0.29519999 -0.1983 0.1312
-0.20190001 0.1682 0.2357
-0.8969 0.1568 0.18799999
-0.59060001 -0.1436 0.27779999
-0.1954 -0.29159999 0.43599999
-0.8369 -0.14399999 0.1881
-0.41339999 0.073830001 0.007119
-0.1367 -0.1388 0.2924
-0.3391 0.1162 0.1567
-0.4648 0.074759997 0.01534
-0.09606 -0.16940001 0.1955
-0.66170001 0.09471 0.083959997
-0.257 0.13070001 0.21179999
-0.54640001 0.13429999 0.2254
-0.19159999 -0.35229999 0.38730001
-0.4129 -0.1665 0.2157
-0.082630001 0.01338 0.1356
-0.82029998 0.1504 0.1674
-0.2516 0.1582 0.30329999
-0.1969 0.081569999 0.047669999
-0.3008 0.134 0.1239
-0.3222 0.080339998 0.04335
-0.86949998 0.081569999 0.047669999
-0.66460001 -0.1258 0.161
-0.98439997 0.07553 0.0207
-0.88319999 -0.1719 0.1499
-0.24609999 0.14569999 0.2683
-0.28979999 0.1517 0.17129999
-0.097829998 -0.070900001 0.37490001
-0.64529997 0.1726 0.28349999
-0.9242 0.1186 0.089790002
-0.7105 0.1388 0.1357
-0.787 0.1275 0.1997
-0.60159999 0.1023 0.057100002
-0.77109998 -0.1241 0.26190001
-0.44839999 0.12630001 0.19509999
-0.72180003 -0.13789999 0.2832
-0.48100001 0.1671 0.228
-0.55229998 0.17219999 0.27250001
-0.1812 0.134 0.30219999
-0.31709999 -0.1541 0.27219999
-0.34450001 0.1568 0.18799999
-0.91339999 -0.1841 0.1031
-0.77649999 -0.191 0.1073
-0.1058 -0.045899998 0.32170001
-0.81480002 0.13779999 0.2387
-0.1047 -0.052779999 0.1691
-0.50309998 0.1365 0.23360001
-0.82029998 0.1494 0.2823
-0.2128 0.1275 0.1086
-0.45390001 0.09471 0.083959997
-0.74379998 -0.1508 0.1789
-0.71079999 -0.15009999 0.1838
-0.091770001 -0.1362 0.1998
-0.1039 -0.3202 0.33230001
-0.39919999 0.099079996 0.096450001
-0.49219999 0.1193 0.1683
-0.59060001 0.1172 0.16060001
-0.29530001 0.1162 0.1567
-0.3554 -0.18000001 0.1786
-0.153 -0.1608 0.2053
-0.42120001 -0.1274 0.30950001
-0.097570002 -0.035039999 0.442
-0.8477 0.14229999 0.2554
-0.103 0.020190001 0.20990001
-0.1858 0.1415 0.2502
-0.15270001 0.1619 0.20469999
-0.2789 -0.15970001 0.19670001
-0.1805 -0.1521 0.22939999
-0.40450001 0.15809999 0.1919
-0.57419997 0.12549999 0.1045
-0.51410002 0.1355 0.1276
-0.1258 0.1172 0.16060001
-0.083609998 0.041340001 0.30469999
-0.1909 -0.2586 0.3452
-0.89660001 0.1356 0.2184
-0.83670002 0.1691 0.2402
-0.087949999 0.027349999 0.2454
-0.2334 -0.20909999 0.1052
-0.60159999 -0.14139999 0.2185
-0.69999999 0.1389 0.2427
-0.1636 -0.1638 0.64389998
-0.78750002 0.1203 0.093479998
-0.78530002 0.073559999 0.003419
-0.49759999 -0.1698 0.1954
-0.093149997 -0.01873 0.4874
-0.16419999 -0.17129999 0.1771
-0.1367 0.1436 0.26050001
-0.16949999 0.1017 0.1042
-0.4646 -0.1675 0.2067
-0.075929999 0.034320001 0.1846
-0.1956 -0.35550001 0.28830001
-0.20280001 -0.3439 0.421
-0.70560002 -0.1929 0.1017
-0.38769999 -0.1831 0.1657
-0.27880001 0.077459998 -0.0098249996
-0.8039 0.15809999 0.192
-0.3664 0.141 0.25040001
-0.4429 -0.1961 0.1237
-0.66170001 0.1222 0.097199999
-0.20209999 -0.3856 0.38730001
-0.09843 0.14910001 0.1637
-0.59619999 -0.1868 0.117
-0.2189 -0.19320001 0.1287
-0.2133 0.148 0.27720001
-0.75419998 0.1286 0.2036
-0.42660001 0.1063 0.064159997
-0.2789 0.09471 0.083959997
-0.80379999 -0.1402 0.2015
-0.093209997 0.02132 0.4314
-0.31169999 0.1203 0.093479998
-0.2024 -0.3872 0.3378
-0.1204 -0.15000001 0.2438
-0.81480002 0.1093 0.12970001
-0.1745 -0.3427 0.33109999
-0.62339997 0.1093 0.12970001
-0.72189999 -0.17399999 0.13150001
-0.4594 0.146 0.15530001
-0.73820001 -0.15360001 0.2228
-0.2462 -0.1517 0.2237
-0.1148 -0.33770001 0.35370001
-0.094939999 0.01462 0.32159999
-0.087870002 -0.1027 0.38859999
-0.091430001 0.02706 0.3714
-0.2078 0.1162 0.1567
-0.90780002 0.1024 0.057020001
-0.55790001 -0.1603 0.1718
-0.5851 0.1725 0.278
-0.092900001 -0.1644 0.26100001
-0.47569999 -0.1488 0.2723
-0.9149 0.1234 0.1824
-0.65619999 0.1219 0.1785
-0.4375 0.1355 0.1276
-0.74879998 0.167 0.2279
-0.8969 -0.141 0.1912
-0.76550001 -0.14659999 0.24420001
-0.5905 -0.17389999 0.17290001
-0.449 -0.16779999 0.1628
-0.50809997 -0.13330001 0.2595
-0.74919999 0.1118 0.075010002
-0.34450001 0.1206 0.093319997
-0.1017 -0.0027419999 0.36000001
-0.87629998 0.1559 0.25260001
-0.8531 0.1149 0.1515
-0.15899999 0.097230002 0.25529999
-0.27340001 0.1725 0.278
-0.66299999 0.064369999 0.1018
-0.54960001 -0.1556 0.2377
-0.52499998 0.1203 0.093479998
-0.47029999 0.14569999 0.2683
-0.2132 -0.17829999 0.1988
-0.1094 0.13070001 0.21179999
-0.58840001 0.073559999 0.003419
-0.84219998 0.080140002 -0.002628
-0.1005 -0.01835 0.26699999
-0.1203 0.1168 0.086120002
-0.89639997 0.1417 0.1432
-0.39379999 -0.18340001 0.1353
-0.1805 0.1726 0.28349999
-0.66729999 -0.1772 0.1294
-0.1529 -0.32699999 0.40189999
-0.85860002 0.1219 0.1785
-0.7766 0.1093 0.12970001
-0.2025 0.1241 0.18629999
-0.45919999 -0.1568 0.244
-0.26249999 0.13779999 0.2387
-0.2351 -0.15279999 0.28819999
-0.65030003 0.107 0.1214
-0.2133 0.1715 0.26159999
-0.2238 0.079329997 0.03954
-0.1135 -0.3477 0.2969
-0.70999998 0.073250003 -0.001572
-0.59609997 0.15970001 0.1965
-0.31990001 -0.1331 0.2906
-0.37189999 0.148 0.27720001
-0.16949999 0.1531 0.1752
-0.64529997 -0.1812 0.1462
-0.61250001 -0.13770001 0.29960001
-0.65079999 0.1149 0.1515
-0.09296 0.16509999 0.2183
-0.26249999 0.1182 0.1645
-0.74919999 0.14669999 0.27219999
-0.1804 -0.33680001 0.35769999
-0.37189999 0.1137 0.14650001
-0.86369997 -0.1389 0.1999
-0.9242 0.083760001 0.01029
-0.61250001 0.15009999 0.16760001
-0.4867 0.1724 0.2942
-0.1532 -0.1947 0.1301
-0.26249999 0.1503 0.1675
-0.40970001 0.13330001 0.22149999
-0.63940001 0.1353 0.22920001
-0.4619 -0.18880001 0.14219999
-0.57429999 -0.1384 0.2314
-0.64950001 0.074239999 0.01123
-0.94749999 0.073420003 -0.02451
-0.4156 0.1494 0.2823
-0.071079999 0.15459999 0.18000001
-0.4483 -0.1408 0.30930001
-0.61250001 0.148 0.27720001
-0.3937 0.16599999 0.2236
-0.68900001 -0.1663 0.18629999
-0.42609999 0.1058 0.1175
-0.09296 0.1719 0.26710001
-0.4648 0.1321 0.21690001
-0.63980001 -0.13789999 0.2255
-0.54689997 0.1118 0.075010002
-0.66509998 -0.066610001 0.1435
-0.54689997 0.1093 0.12970001
-0.16410001 0.1093 0.12970001
-0.9127 0.12909999 0.1123
-0.91839999 -0.1346 0.2066
-0.91790003 0.149 0.1724
-0.33309999 0.13070001 0.116
-0.16859999 -0.28099999 0.32170001
-0.075479999 0.033360001 0.1577
-0.5632 -0.142 0.28819999
-0.76560003 0.081569999 0.047669999
-0.24609999 0.17219999 0.27250001
-0.96249998 0.093510002 0.038369998
-0.49770001 0.1082 0.067749999
-0.80379999 -0.13349999 0.29030001
-0.2137 -0.13869999 0.28080001
-0.37189999 0.083760001 0.01029
-0.31720001 0.09471 0.083959997
-0.49219999 0.1127 0.1426
-0.2023 -0.27000001 0.3757
-0.38280001 -0.1653 0.223
-0.59060001 0.090559997 0.030719999
-0.2131 -0.1602 0.26199999
-0.36649999 -0.1383 0.25850001
-0.1227 -0.17829999 0.40220001
-0.89139998 0.1171 0.085960001
-0.31169999 0.1436 0.26050001
-0.41010001 -0.1538 0.26120001
-0.0995 -0.1059 0.2511
-0.82550001 -0.16760001 0.1683
-0.19149999 -0.30860001 0.3163
-0.88590002 0.086110003 0.01811
-0.14219999 0.1044 0.113
-0.32269999 -0.1814 0.1442
-0.52490002 -0.1771 0.1698
-0.40470001 0.083099999 0.0526
-0.29499999 -0.1434 0.24699999
-0.44299999 0.148 0.27720001
-0.70499998 0.12909999 0.1123
-0.8204 -0.12970001 0.23459999
-0.58469999 0.1399 0.13950001
-0.32269999 0.086110003 0.01812
-0.50870001 -0.1868 0.1225
-0.1363 0.13070001 0.116
-0.84799999 -0.1287 0.2334
-0.34999999 0.146 0.155
-0.67820001 -0.1355 0.22930001
-0.34999999 0.096089996 0.087789997
-0.34450001 0.080140002 -0.0026380001
-0.74370003 0.081079997 0.001335
-0.61799997 0.1017 0.1042
-0.257 0.083760001 0.01029
-0.70550001 0.1182 0.1645
-0.2032 -0.29899999 0.41240001
-0.77100003 -0.1679 0.1727
-0.79299998 0.096089996 0.087789997
-0.47029999 0.15549999 0.1842
-0.4156 -0.14579999 0.2924
-0.24259999 -0.1337 0.31349999
-0.74879998 0.1058 0.1175
-0.33899999 -0.1663 0.2246
-0.53049999 0.1705 0.2509
-0.1603 0.1067 0.31
-0.82529998 0.080339998 0.04335
-0.1472 -0.34099999 0.33880001
-0.77109998 0.1725 0.278
-0.91329998 0.096089996 0.087789997
-0.61250001 0.1135 0.078730002
-0.34999999 0.1107 0.1347
-0.5359 0.1494 0.2823
-0.8969 -0.17200001 0.1243
-0.88050002 0.1093 0.12970001
-0.1802 -0.3301 0.38800001
-0.175 -0.34549999 0.29820001
-0.094789997 0.16940001 0.3019
-0.1697 -0.1612 0.26339999
-0.1199 -0.32699999 0.40189999
-0.62889999 0.1621 0.30430001
-0.5359 -0.16509999 0.20649999
-0.56870002 0.1698 0.2455
-0.1856 -0.17569999 0.1654
-0.61250001 0.084899999 0.01422
-0.9404 0.1292 0.1314
-0.27880001 -0.15270001 0.2827
-0.65619999 0.1494 0.2823
-0.1089 0.12909999 0.1123
-0.44839999 0.15549999 0.30129999
-0.1805 0.1638 0.2132
-0.41580001 -0.1441 0.2318
-0.1022 -0.029990001 0.19599999
-0.18880001 -0.32539999 0.41080001
-0.14659999 0.065099999 0.16249999
-0.52499998 0.1726 0.28349999
-0.098640002 -0.0051060002 0.42829999
-0.66119999 0.1296 0.20739999
-0.13079999 -0.33180001 0.38029999
-0.34400001 -0.1753 0.15449999
-0.5086 -0.1596 0.22840001
-0.86409998 0.1186 0.089790002
-0.2296 -0.19140001 0.1569
-0.54689997 0.074759997 0.01534
-0.35550001 0.1705 0.2509
-0.88050002 0.088679999 0.068099998
-0.1367 -0.16779999 0.2431
-0.14210001 -0.1869 0.17910001
-0.51410002 -0.1503 0.2006
-0.66710001 -0.1628 0.1999
-0.78200001 -0.1805 0.13500001
-0.1745 0.1275 0.1997
-0.74370003 0.1726 0.28349999
-0.076559998 0.046459999 0.2563
-0.30579999 0.107 0.1214
-0.8204 -0.1231 0.2608
-0.71640003 0.1621 0.30430001
-0.3829 -0.15440001 0.2017
-0.1859 0.1433 0.14740001
-0.6972 -0.1392 0.28150001
-0.37729999 -0.1481 0.28839999
-0.1531 0.1433 0.14740001
-0.30399999 0.073830001 0.007119
-0.1531 -0.31349999 0.34670001
-0.66229999 -0.068039998 0.19159999
-0.57980001 -0.1249 0.28929999
-0.8495 -0.1159 0.31189999
-0.1805 0.076420002 0.02596
-0.79839998 0.14229999 0.2554
-0.61250001 0.1149 0.1515
-0.43200001 0.13070001 0.21179999
-0.090839997 -0.1327 0.2559
-0.1969 -0.1568 0.2128
-0.099569999 0.001135 0.2942
-0.89139998 0.076420002 -0.027489999
-0.54140002 0.14470001 0.1512
-0.25170001 -0.1375 0.27880001
-0.38280001 0.124 0.18629999
-0.32800001 -0.1793 0.18359999
-0.82029998 0.086180001 0.018340001
-0.091969997 -0.01085 0.13060001
-0.47580001 0.081569999 0.047669999
-0.53049999 0.097439997 0.091619998
-0.8039 0.076269999 -0.027210001
-0.3714 0.1275 0.1086
-0.28439999 0.1504 0.2863
-0.6178 -0.1565 0.2265
-0.80379999 -0.14929999 0.2299
-0.28439999 0.1257 0.1044
-0.57410002 -0.1504 0.25350001
-0.69450003 0.097439997 0.091619998
-0.55229998 0.093659997 0.0383
-0.63389999 0.1417 0.1432
-0.90740001 -0.13940001 0.25330001
-0.54140002 0.087099999 0.063960001
-0.076559998 0.1219 0.1785
-0.1477 0.1193 0.1683
-0.67210001 0.13060001 0.1162
-0.1312 -0.19670001 0.1513
-0.1312 0.13779999 0.2387
-0.30090001 -0.1618 0.18960001
-0.83670002 0.1171 0.085960001
-0.38280001 0.1727 0.28889999
-0.1042 0.05782 0.3513
-0.73280001 0.12630001 0.19509999
-0.19679999 -0.16590001 0.1882
-0.24609999 -0.1816 0.1847
-0.1934 0.1363 0.27829999
-0.9404 -0.16580001 0.162
-0.67809999 -0.1617 0.1592
-0.31720001 0.1004 0.053470001
-0.79290003 0.083059996 0.052480001
-0.73299998 -0.1321 0.23540001
-0.090010002 -0.057610001 0.4533
-0.47029999 0.079010002 -0.006484
-0.72189999 -0.1186 0.3001
-0.14210001 -0.1586 0.2773
-0.53049999 -0.12890001 0.31529999
-0.63980001 0.093659997 0.0383
-0.2843 -0.1727 0.1648
-0.1203 -0.33289999 0.31279999
-0.27900001 -0.1525 0.2186
-0.61290002 -0.12800001 0.2701
-0.1029 -0.062309999 0.3545
-0.79839998 -0.1717 0.15880001
-0.56870002 -0.1674 0.1956
-0.86400002 -0.1593 0.19
-0.80930001 -0.19149999 0.1028
-0.1556 -0.1725 0.2245
-0.086010002 0.03325 0.28369999
-0.2242 -0.15099999 0.2288
-0.093359999 0.005136 0.4772
-0.42109999 0.1117 0.13869999
-0.39379999 -0.1356 0.26750001
-0.3391 0.141 0.25040001
-0.1312 -0.1494 0.31459999
-0.50309998 0.14229999 0.2554
-0.15090001 -0.118 0.65020001
-0.62889999 -0.1481 0.25560001
-0.51410002 0.1206 0.1733
-0.61250001 0.141 0.25040001
-0.093079999 -0.061239999 0.4307
-0.55769998 -0.18610001 0.14049999
-0.27340001 0.1705 0.2509
-0.66369998 -0.021989999 0.1952
-0.33090001 -0.15530001 0.2041
-0.1476 0.125 0.1901
-0.41549999 -0.184 0.1605
-0.1034 -0.1443 0.27039999
-0.1866 -0.30180001 0.37059999
-0.3281 -0.19769999 0.12980001
-0.1355 -0.23019999 0.25409999
-0.89670002 -0.15530001 0.15629999
-0.54149997 -0.12809999 0.27880001
-0.34990001 -0.2031 0.1133
-0.68360001 0.1118 0.075010002
-0.94059998 0.092079997 0.034540001
-0.7105 0.107 0.1214
-0.09296 0.1691 0.2402
-0.56330001 0.1459 0.155
-0.2406 0.087099999 0.063960001
-0.83670002 -0.117 0.287
-0.8423 -0.15350001 0.1649
-0.3008 -0.207 0.1027
-0.30090001 -0.18009999 0.1481
-0.8477 0.1517 0.17129999
-0.86409998 0.084899999 0.01422
-0.85320002 -0.1811 0.1115
-0.89090002 0.1275 0.1086
-0.1531 0.098839998 0.04958
-0.59560001 0.1296 0.20739999
-0.51950002 0.082269996 0.0052970001
-0.86409998 -0.16150001 0.146
-0.2079 0.13079999 0.21179999
-0.8696 -0.1293 0.229
-0.5905 -0.1838 0.14399999
-0.96799999 0.073080003 -0.0065870001
-0.49759999 0.1044 0.113
-0.076559998 0.1371 0.13150001
-0.54149997 -0.1673 0.15710001
-0.1016 -0.018409999 0.37650001
-0.1859 0.1661 0.30379999
-0.2078 0.1151 0.08247
-0.1216 -0.089220002 0.63880002
-0.1038 -0.17479999 0.2225
-0.257 0.1637 0.2132
-0.1018 -0.002787 0.33809999
-0.40470001 0.149 0.1637
-0.2406 0.1399 0.2465
-0.2297 0.1162 0.1567
-0.35499999 0.13429999 0.2254
-0.090290003 -0.095679998 0.40920001
-0.44299999 0.1017 0.1042
-0.66189998 0.019750001 0.1199
-0.1758 0.09279 0.1531
-0.2133 0.15970001 0.1965
-0.62889999 0.087099999 0.063960001
-0.31709999 -0.1645 0.23370001
-0.1913 -0.36320001 0.32170001
-0.58410001 0.073870003 -0.017969999
-0.3937 -0.2015 0.105
-0.1473 -0.1496 0.63599998
-0.1057 -0.04623 0.26710001
-0.69450003 0.14470001 0.26449999
-0.47530001 -0.1603 0.2298
-0.1851 -0.1904 0.64719999
-0.88590002 0.096089996 0.087789997
-0.27340001 0.1082 0.067869999
-0.92379999 0.079329997 0.03954
-0.1001 -0.1339 0.39899999
-0.098269999 -0.038959999 0.41960001
-0.18960001 -0.2773 0.41859999
-0.50309998 0.092079997 0.034540001
-0.1507 -0.3026 0.39719999
-0.65350002 -0.1393 0.287
-0.1992 -0.34619999 0.4429
-0.47580001 0.089139998 0.02689
-0.96799999 0.088830002 0.068489999
-0.197 -0.1416 0.26769999
-0.2023 0.091870002 0.07632
-0.88700002 0.13860001 0.23710001
-0.7647 0.073250003 -0.001572
-0.89700001 -0.134 0.2112
-0.4867 0.1171 0.085960001
-0.76560003 0.097439997 0.091619998
-0.1047 -0.066019997 0.29589999
-0.34450001 0.09883 0.049559999
-0.83670002 0.1117 0.13860001
-0.1312 -0.31189999 0.3504
-0.1909 -0.36129999 0.41999999
-0.84219998 0.1017 0.1042
-0.08704 0.02043 0.1961
-0.93510002 0.1098 0.071460001
-0.3554 -0.1542 0.26679999
-0.64520001 -0.16850001 0.1839
-0.4867 0.090400003 0.072520003
-0.75470001 0.1024 0.057009999
-0.43200001 0.123 0.1824
-0.47580001 -0.13500001 0.25650001
-0.50309998 0.146 0.155
-0.61799997 -0.145 0.206
-0.1805 0.1184 0.089730002
-0.45950001 -0.1322 0.27329999
-0.91829997 0.1388 0.1357
-0.2789 -0.1596 0.25580001
-0.20280001 -0.31099999 0.42950001
-0.60170001 -0.1543 0.1823
-0.6868 0.073559999 0.003419
-0.097410001 -0.096450001 0.3001
-0.24609999 0.1117 0.075209998
-0.1969 0.089139998 0.02689
-0.3003 0.1353 0.22920001
-0.32390001 -0.1354 0.31720001
-0.14229999 -0.1559 0.22229999
-0.94059998 0.080470003 -0.0026789999
-0.2023 0.1007 0.053300001
-0.63429999 -0.18780001 0.1287
-0.27340001 0.1556 0.1842
-0.89120001 -0.15989999 0.18520001
-0.75989997 -0.18700001 0.1194
-0.8039 0.1004 0.053459998
-0.50309998 0.1531 0.1752
-0.097050004 0.01032 0.38190001
-0.2242 0.1044 0.113
-0.1001 -0.1162 0.1903
-0.18880001 0.1234 0.2366
-0.16410001 0.1149 0.1515
-0.3062 -0.15880001 0.25549999
-0.90799999 -0.12729999 0.2313
-0.4102 0.087449998 0.022050001
-0.1058 -0.067740001 0.2233
-0.36090001 0.1063 0.064139999
-0.66729999 -0.141 0.2129
-0.68360001 -0.1295 0.2509
-0.73290002 -0.1406 0.20739999
-0.2511 0.1058 0.1175
-0.31729999 -0.1417 0.25130001
-0.63440001 0.086110003 0.01811
-0.2023 0.1504 0.1674
-0.12530001 0.1081 0.1252
-0.4756 -0.1284 0.28850001
-0.4375 0.15459999 0.18000001
-0.4429 -0.1635 0.22239999
-0.1802 -0.1838 0.1847
-0.091899998 -0.1037 0.33660001
-0.84469998 -0.156 0.2025
-0.42609999 0.1417 0.1432
-0.45950001 -0.145 0.2221
-0.1032 -0.0462 0.1468
-0.6232 -0.17739999 0.1592
-0.1913 -0.38499999 0.3545
-0.36649999 -0.1716 0.161
-0.73269999 -0.1638 0.18960001
-0.86769998 0.07322 -0.0209
-0.1476 0.1119 0.075149998
-0.96740001 0.07378 -0.02754
-0.09843 -0.3351 0.36539999
-0.1804 -0.33289999 0.31290001
-0.514 -0.152 0.25510001
-0.22139999 -0.1602 0.2006
-0.20200001 0.1054 0.1175
-0.20290001 -0.18790001 0.1393
-0.92940003 -0.15090001 0.2097
-0.1007 -0.3075 0.40920001
-0.1011 -0.046270002 0.382
-0.12980001 -0.1126 0.63620001
-0.75700003 0.073629998 -0.0255
-0.88590002 0.1007 0.053300001
-0.37729999 0.096089996 0.087789997
-0.19149999 -0.40220001 0.38909999
-0.24070001 -0.1727 0.1679
-0.43200001 0.17219999 0.27250001
-0.3281 0.1151 0.08258
-0.42660001 0.15369999 0.29809999
-0.56339997 -0.1877 0.1177
-0.57419997 0.134 0.1239
-0.1586 0.1719 0.26710001
-0.54699999 -0.1416 0.22409999
-0.54149997 -0.19660001 0.1051
-0.92970002 -0.1462 0.17470001
-0.94059998 0.1002 0.05353
-0.8258 0.1355 0.1276
-0.71920002 -0.12809999 0.25330001
-0.79339999 -0.116 0.30899999
-0.4648 0.1724 0.2942
-0.52450001 0.12909999 0.1123
-0.32260001 0.1137 0.14650001
-0.57419997 0.164 0.2131
-0.87510002 -0.16859999 0.13150001
-0.30070001 -0.152 0.28259999
-0.39930001 -0.1506 0.21160001
-0.71100003 -0.16680001 0.146
-0.1258 0.1504 0.2863
-0.71079999 -0.1336 0.23270001
-0.56330001 0.1193 0.1683
-0.1182 0.03712 0.20370001
-0.1531 -0.3477 0.30840001
-0.54680002 -0.1724 0.1822
-0.13150001 0.085189998 0.33489999
-0.65619999 -0.1507 0.24259999
-0.1148 -0.30360001 0.382
-0.54089999 0.1296 0.20739999
-0.86940002 -0.1294 0.29879999
-0.45390001 0.077430002 0.03115
-0.82529998 0.1609 0.2009
-0.2094 -0.34630001 0.3919
-0.27329999 -0.1437 0.31600001
-0.1882 0.1122 0.19149999
-0.1203 0.1219 0.1785
-0.43200001 0.17030001 0.2509
-0.48629999 0.13330001 0.22149999
-0.83670002 0.074759997 0.01534
-0.1732 -0.2987 0.32839999
-0.1749 -0.183 0.1512
-0.1908 0.1074 0.15539999
-0.76560003 0.090559997 0.030719999
-0.09984 -0.018680001 0.41479999
-0.4921 -0.1965 0.1183
-0.86409998 0.1705 0.2509
-0.59609997 0.1714 0.29859999
-0.79540002 0.15710001 0.29949999
-0.1913 -0.35229999 0.36000001
-0.96259999 -0.1768 0.112
-0.099760003 -0.1119 0.16859999
-0.2032 -0.27790001 0.35479999
-0.66589999 0.1126 0.223
-0.2784 -0.18189999 0.1804
-0.37200001 -0.1426 0.24079999
-0.19670001 -0.25560001 0.38679999
-0.79860002 -0.1283 0.24070001
-0.67269999 0.093359999 0.03844
-0.1585 -0.1672 0.24250001
-0.9763 0.1037 0.0601
-0.091069996 -0.1219 0.29960001
-0.1586 -0.26159999 0.36849999
-0.26800001 0.09691 0.045979999
-0.44800001 0.13429999 0.2254
-0.39899999 -0.1621 0.2323
-0.66170001 0.1115 0.075170003
-0.8585 -0.1772 0.13699999
-0.091200002 0.029820001 0.41460001
-0.5851 0.14229999 0.2554
-0.35550001 0.1504 0.2863
-0.88590002 -0.13680001 0.26640001
-0.1203 -0.156 0.22310001
-0.68360001 0.15970001 0.1965
-0.56870002 0.1117 0.13860001
-0.66149998 0.1004 0.1077
-0.77100003 -0.1261 0.31369999
-0.72729999 0.083760001 0.01029
-0.19050001 -0.3964 0.3258
-0.7816 0.12909999 0.1123
-0.1696 -0.16339999 0.19679999
-0.4316 0.1619 0.20469999
-0.1367 -0.34490001 0.32120001
-0.50849998 -0.17479999 0.1787
-0.59619999 -0.1971 0.1013
-0.16940001 -0.2059 0.1222
-0.57959998 -0.13249999 0.2527
-0.6645 -0.1042 0.1547
-0.90750003 -0.1496 0.21690001
-0.89469999 0.073830001 0.007119
-0.15270001 0.1353 0.22920001
-0.1477 -0.13600001 0.3105
-0.2624 -0.15539999 0.27419999
-0.68900001 -0.1499 0.2413
-0.71079999 -0.1469 0.2498
-0.1328 0.061870001 0.24529999
-0.32780001 -0.1498 0.2881
-0.1037 -0.029370001 0.24519999
-0.95160002 0.085709997 0.06027
-0.175 0.092079997 0.034540001
-0.61250001 0.093510002 0.038380001
-0.099990003 -0.03483 0.16850001
-0.1584 -0.1516 0.30419999
-0.1143 -0.1662 0.1943
-0.2078 0.1117 0.13869999
-0.1586 0.1515 0.29010001
-0.1899 -0.25690001 0.36359999
-0.77270001 0.16949999 0.3012
-0.78189999 -0.1499 0.2304
-0.193 -0.30090001 0.29319999
-0.1585 -0.17839999 0.2043
-0.71090001 0.081569999 0.047669999
-0.8312 -0.18359999 0.122
-0.097580001 0.01454 0.35499999
-0.61750001 0.13070001 0.116
-0.1047 -0.02791 0.29179999
-0.92430001 -0.1584 0.1479
-0.1056 -0.07863 0.185
-0.15530001 0.1039 0.32749999
-0.66329998 -0.14139999 0.1937
-0.3881 -0.1454 0.2287
-0.27880001 -0.1727 0.2097
-0.36090001 0.15459999 0.18000001
-0.09008 -0.149 0.2475
-0.55769998 -0.1464 0.27129999
-0.45390001 0.106 0.064309999
-0.76560003 0.1399 0.2465
-0.69410002 0.1417 0.1432
-0.86949998 0.090559997 0.030719999
-0.096220002 -0.01784 0.163
-0.19149999 -0.1375 0.28960001
-0.57429999 -0.1552 0.1833
-0.30579999 0.078419998 0.03568
-0.73280001 0.1107 0.1347
-0.2843 -0.1485 0.29949999
-0.3495 0.1619 0.20469999
-0.1024 -0.062930003 0.31639999
-0.91320002 -0.1647 0.1681
-0.92979997 -0.16949999 0.1266
-0.65079999 0.164 0.2131
-0.361 -0.1919 0.1222
-0.1751 -0.1575 0.213
-0.68910003 -0.1234 0.27810001
-0.1859 -0.1689 0.2333
-0.55500001 -0.17730001 0.1664
-0.68360001 0.091870002 0.07632
-0.3281 0.1648 0.2184
-0.1038 -0.1392 0.29820001
-0.47589999 -0.1816 0.13339999
-0.3008 0.1206 0.1733
-0.082029998 0.12630001 0.19509999
-0.3714 0.1402 0.13940001
-0.43450001 -0.14929999 0.2112
-0.71649998 -0.15629999 0.1679
-0.8531 -0.1649 0.1736
-0.69450003 0.1621 0.30430001
-0.2032 -0.37259999 0.3996
-0.2784 0.1286 0.2036
-0.38240001 0.1286 0.2036
-0.4648 0.087099999 0.063960001
-0.7712 -0.14120001 0.20209999
-0.2352 0.092079997 0.034540001
-0.1586 0.085709997 0.06027
-0.90249997 -0.1209 0.25690001
-0.40470001 0.1371 0.13150001
-0.32260001 0.087099999 0.063950002
-0.1258 0.1724 0.2942
-0.66119999 -0.16429999 0.15449999
-0.71640003 0.1515 0.29010001
-0.92390001 -0.14040001 0.1904
-0.097560003 -0.073260002 0.39269999
-0.82550001 -0.14 0.2615
-0.087240003 0.0067830002 0.15180001
-0.46439999 0.1397 0.13959999
-0.102 -0.090499997 0.63380003
-0.084720001 0.045430001 0.32179999
-0.60420001 -0.1224 0.3019
-0.7105 0.1619 0.20469999
-0.35499999 0.1058 0.1175
-0.7766 0.15700001 0.18799999
-0.82569999 -0.1561 0.2042
-0.53009999 -0.16060001 0.22239999
-0.34400001 -0.1432 0.24160001
-0.80379999 -0.16320001 0.1839
-0.1813 -0.3008 0.34959999
-0.5413 -0.1427 0.28839999
-0.66589999 -0.1062 0.19050001
-0.081569999 0.1081 0.1252
-0.38249999 -0.1938 0.1185
-0.89139998 0.093659997 0.0383
-0.35010001 -0.1635 0.1807
-0.41580001 -0.1591 0.1865
-0.54680002 0.13060001 0.1163
-0.21870001 0.1691 0.2402
-0.20290001 0.14 0.2538
-0.3008 0.1556 0.1842
-0.092909999 -0.1411 0.28389999
-0.7766 0.1525 0.294
-0.59579998 -0.1547 0.2353
-0.095409997 -0.088780001 0.37059999
-0.79839998 0.14669999 0.27219999
-0.1027 -0.089550003 0.25600001
-0.15549999 -0.2455 0.38730001
-0.49770001 0.16599999 0.2235
-0.59060001 0.1715 0.26159999
-0.40459999 -0.1366 0.31670001
-0.6372 -0.13339999 0.242
-0.5086 0.1725 0.278
-0.76010001 0.1107 0.1347
-0.32260001 0.148 0.27720001
-0.54689997 0.1727 0.28889999
-0.56870002 0.1719 0.26710001
-0.6124 -0.1417 0.2827
-0.72729999 0.15180001 0.1714
-0.94059998 0.09471 0.083959997
-0.16410001 -0.15009999 0.2383
-0.361 -0.13420001 0.278
-0.17110001 -0.1499 0.65079999
-0.8035 -0.1228 0.26539999
-0.90780002 0.1127 0.1426
-0.09843 -0.3044 0.37670001
-0.92970002 0.1127 0.1425
-0.18709999 0.107 0.17219999
-0.88599998 -0.1302 0.22390001
-0.1031 -0.022840001 0.34419999
-0.4648 0.125 0.1901
-0.38280001 0.14229999 0.2554
-0.89139998 0.083099999 0.0526
-0.21870001 0.097439997 0.091619998
-0.3391 0.1206 0.1733
-0.28979999 0.083760001 0.01029
-0.1258 0.1238 0.1008
-0.2516 0.081569999 0.047669999
-0.85860002 0.085709997 0.06027
-0.78200001 0.1133 0.078809999
-0.43689999 -0.15539999 0.1945
-0.88590002 0.1098 0.071460001
-0.83679998 -0.1257 0.24600001
-0.68360001 0.1257 0.1045
-0.41499999 0.12909999 0.1123
-0.43200001 0.1136 0.078659996
-0.28940001 0.1388 0.1357
-0.62889999 -0.1706 0.17919999
-0.80930001 -0.1645 0.14380001
-0.55229998 0.12630001 0.19509999
-0.1039 0.15700001 0.18799999
-0.62879997 -0.1383 0.29460001
-0.72750002 -0.1212 0.28420001
-0.59609997 0.1355 0.1276
-0.1636 -0.331 0.38420001
-0.1026 -0.1877 0.1795
-0.3281 -0.16060001 0.24609999
-0.29539999 0.077189997 -0.01349
-0.63980001 -0.1971 0.1032
-0.66460001 -0.034729999 0.2076
-0.85860002 0.073080003 -0.00655
-0.48120001 0.11 0.071390003
-0.78729999 -0.15989999 0.1962
-0.43200001 -0.1424 0.3048
-0.7001 -0.1284 0.25470001
-0.2297 0.081249997 0.001321
-0.83660001 -0.1473 0.2334
-0.20720001 -0.33579999 0.405
-0.73830003 0.093359999 0.038449999
-0.59600002 -0.139 0.29609999
-0.54699999 -0.154 0.1876
-0.84219998 0.1005 0.053399999
-0.8039 0.1187 0.089709997
-0.25659999 0.1402 0.13940001
-0.33360001 0.097439997 0.091619998
-0.63980001 0.123 0.1824
-0.16410001 0.1223 0.096989997
-0.8527 0.1275 0.1086
-0.56279999 0.13330001 0.22149999
-0.50849998 -0.1859 0.1459
-0.2024 -0.37470001 0.3154
-0.08202 0.1504 0.1674
-0.44859999 -0.1785 0.141
-0.49759999 -0.1416 0.29910001
-0.44800001 0.1684 0.23559999
-0.64529997 0.13240001 0.1202
-0.62360001 -0.1211 0.3055
-0.66469997 0.082489997 0.2237
-0.66589999 -0.0077220001 0.2066
-0.70550001 0.07784 -0.01706
-0.63440001 -0.16859999 0.1479
-0.77899998 -0.1724 0.1587
-0.094930001 -0.024320001 0.45860001
-0.66170001 0.088770002 0.068340003
-0.61799997 0.124 0.1007
-0.16949999 -0.31439999 0.4113
-0.45919999 -0.14380001 0.2949
-0.1202 -0.1389 0.2949
-0.41010001 0.1044 0.113
-0.86400002 -0.1542 0.20649999
-0.19159999 -0.28119999 0.3818
-0.90350002 0.13959999 0.20379999
-0.9131 -0.14830001 0.1708
-0.58520001 -0.15019999 0.1948
-0.42089999 0.1354 0.1279
-0.1047 -0.05525 0.3396
-0.787 0.1684 0.23559999
-0.3062 -0.17730001 0.192
-0.722 -0.1453 0.19499999
-0.1727 -0.1776 0.64399999
-0.81480002 0.09533 0.04214
-0.19149999 -0.1978 0.1225
-0.58520001 0.1044 0.060559999
-0.189 -0.39680001 0.3432
-0.2296 -0.1972 0.1406
-0.26159999 0.073250003 -0.001561
-0.12989999 0.047669999 0.193
-0.75470001 0.09533 0.04214
-0.67799997 -0.1454 0.25940001
-0.72719997 -0.1573 0.2112
-0.3335 -0.15360001 0.27200001
-0.1964 0.13860001 0.1357
-0.74910003 -0.1471 0.24429999
-0.514 -0.16940001 0.19509999
-0.73290002 -0.1559 0.16769999
-0.4975 -0.16329999 0.21690001
-0.77109998 0.1206 0.093319997
-0.87510002 -0.1559 0.1568
-0.55229998 0.1044 0.060559999
-0.56870002 0.1017 0.1042
-0.51950002 0.07553 0.0207
-0.78750002 0.1162 0.1567
-0.2133 0.089139998 0.02689
-0.1859 0.1017 0.1042
-0.3664 0.1727 0.28889999
-0.4375 0.077430002 0.03115
-0.35550001 0.1162 0.1567
-0.1144 -0.33180001 0.38029999
-0.50309998 0.1171 0.085960001
-0.8937 -0.1164 0.28099999
-0.085079998 0.037330002 0.43669999
-0.14219999 0.14749999 0.15889999
-0.67040002 0.073559999 0.003419
-0.78750002 0.1371 0.13150001
-0.51359999 0.1417 0.1432
-0.27340001 0.081569999 0.047669999
-0.30070001 -0.1683 0.22220001
-0.3114 -0.19859999 0.12909999
-0.34999999 -0.18979999 0.15000001
-0.5686 -0.1626 0.2112
-0.75470001 -0.1258 0.25670001
-0.79280001 -0.19050001 0.1071
-0.257 -0.1442 0.3161
-0.91329998 0.090400003 0.072520003
-0.088330001 0.02431 0.26140001
-0.48660001 -0.1515 0.26050001
-0.087399997 -0.1042 0.37239999
-0.49219999 0.1705 0.2509
-0.4375 0.093659997 0.0383
-0.2405 -0.2042 0.1204
-0.89679998 -0.17479999 0.14030001
-0.45089999 -0.18340001 0.1587
-0.3775 -0.18619999 0.13240001
-0.1531 0.1705 0.2509
-0.63440001 0.081569999 0.047669999
-0.81459999 0.1724 0.28819999
-0.42660001 0.081239998 0.001311
-0.1859 -0.1608 0.26289999
-0.087839998 0.025210001 0.21259999
-0.2132 -0.15459999 0.2836
-0.16949999 -0.1973 0.1461
-0.71109998 -0.18440001 0.1142
-0.42660001 -0.12899999 0.29449999
-0.3827 -0.1393 0.31600001
-0.2897 -0.14 0.2617
-0.33360001 0.074759997 0.01534
-0.096000001 -0.1328 0.1848
-0.62879997 -0.12720001 0.26910001
-0.84759998 -0.12909999 0.30320001
-0.1886 -0.30129999 0.4061
-0.57950002 -0.1389 0.2987
-0.48679999 -0.1737 0.1476
-0.37090001 0.073250003 -0.001572
-0.60699999 -0.13150001 0.31459999
-0.9023 0.1517 0.17129999
-0.2133 0.082429998 0.0052680001
-0.19140001 -0.33039999 0.42559999
-0.1131 -0.2017 0.1876
-0.60159999 0.07553 0.0207
-0.68349999 -0.18279999 0.1185
-0.66189998 -0.1389 0.1691
-0.3691 -0.1556 0.25940001
-0.53049999 0.081569999 0.047669999
-0.4152 0.1296 0.20739999
-0.66720003 0.141 0.25040001
-0.54149997 -0.18009999 0.1319
-0.65079999 -0.1311 0.3136
-0.1742 0.1202 0.30090001
-0.78210002 -0.12909999 0.23989999
-0.2351 0.1715 0.26159999
-0.74379998 0.073009998 -0.0119
-0.51950002 0.1399 0.2465
-0.5729 0.074239999 0.01123
-0.4102 0.14569999 0.2683
-0.3281 0.093659997 0.0383
-0.3664 -0.1867 0.15719999
-0.34450001 0.1691 0.2402
-0.42649999 -0.164 0.2225
-0.8531 0.1691 0.2402
-0.1706 -0.27320001 0.3761
-0.1027 -0.0568 0.37090001
-0.098669998 -0.053800002 0.4156
-0.84219998 0.171 0.25619999
-0.54689997 0.081079997 0.0013379999
-0.1143 -0.2001 0.21160001
-0.61250001 -0.1239 0.28909999
-0.39379999 -0.1292 0.30000001
-0.8204 -0.15710001 0.1584
-0.2078 0.1726 0.28349999
-0.086460002 -0.1382 0.32139999
-0.1229 0.049180001 0.2357
-0.2132 -0.1709 0.2233
-0.48120001 0.1219 0.1785
-0.1051 -0.035500001 0.278
-0.19159999 -0.29210001 0.36000001
-0.1095 -0.1472 0.2568
-0.6947 -0.1322 0.24089999
-0.098410003 -0.15449999 0.29969999
-0.61199999 0.1058 0.1175
-0.52950001 0.073250003 -0.001572
-0.79830003 -0.17730001 0.1427
-0.20299999 -0.2879 0.40220001
-0.53049999 0.1029 0.1081
-0.88 0.1275 0.1997
-0.88590002 0.164 0.2131
-0.9702 -0.17039999 0.1407
-0.41010001 -0.17560001 0.14929999
-0.2093 -0.35690001 0.3813
-0.79299998 0.07784 -0.017069999
-0.83670002 0.07784 -0.017069999
-0.1046 -0.086879998 0.2023
-0.1873 -0.17659999 0.65240002
-0.175 0.083070002 0.052530002
-0.1157 0.064800002 0.33930001
-0.55790001 -0.17219999 0.14579999
-0.092840001 -0.1512 0.31389999
-0.55779999 0.084749997 0.01429
-0.1022 -0.046470001 0.3603
-0.52509999 -0.1769 0.13940001
-0.91869998 0.1445 0.1513
-0.087439999 -0.1318 0.27379999
-0.19069999 0.1276 0.2507
-0.13850001 0.05737 0.186
-0.1459 -0.2466 0.27649999
-0.79280001 -0.1675 0.1717
-0.1587 -0.17990001 0.1587
-0.1036 -0.03596 0.31119999
-0.84740001 0.1639 0.27790001
-0.4048 -0.1547 0.1987
-0.60439998 -0.161 0.16590001
-0.90210003 -0.1849 0.1122
-0.66189998 0.04679 0.2078
-0.097199999 0.044629999 0.3554
-0.1094 0.1436 0.26050001
-0.1515 -0.2316 0.38690001
-0.1015 -0.008262 0.40349999
-0.098370001 -0.1609 0.2739
-0.16410001 0.1567 0.1881
-0.13850001 -0.2384 0.2656
-0.45930001 -0.16069999 0.23010001
-0.66589999 0.019710001 0.2115
-0.787 0.078419998 0.03568
-0.55779999 0.14229999 0.2554
-0.71090001 0.1365 0.23360001
-0.47029999 0.1365 0.23360001
-0.091389999 -0.085790001 0.39879999
-0.80940002 0.1127 0.1426
-0.1794 -0.30289999 0.3874
-0.57419997 0.1149 0.1515
-0.82029998 0.1017 0.1042
-0.4375 0.097439997 0.091619998
-0.61250001 0.097439997 0.091619998
-0.69999999 0.15459999 0.18000001
-0.92970002 0.07553 0.0207
-0.8531 0.081569999 0.047669999
-0.36090001 0.1017 0.1042
-0.4102 0.1093 0.12970001
-0.2406 0.083760001 0.01029
-0.27900001 -0.1319 0.31020001
-0.27340001 0.099079996 0.096450001
-0.78200001 0.099079996 0.096450001
-0.27340001 -0.1768 0.1971
-0.48120001 -0.1768 0.1752
-0.1106 -0.19 0.1662
-0.95520002 -0.1628 0.16779999
-0.93190002 -0.1353 0.2112
-0.092189997 -0.1256 0.2436
-0.81480002 0.083099999 0.0526
-0.13500001 -0.20819999 0.38249999
-0.5851 0.1206 0.1733
-0.2406 0.1127 0.1424
-0.50309998 0.1149 0.1515
-0.094850004 -0.02379 0.47420001
-0.48120001 0.085709997 0.06027
-0.1017 -0.1331 0.4131
-0.57980001 -0.142 0.21879999
-0.1504 -0.26440001 0.27680001
-0.58520001 0.077430002 0.03115
-0.092380002 0.023229999 0.3326
-0.50849998 -0.19769999 0.1134
-0.66729999 -0.12540001 0.27309999
-0.80339998 0.080339998 0.04335
-0.7712 -0.1714 0.1338
-0.2298 -0.1452 0.24959999
-0.20370001 -0.36300001 0.4258
-0.66710001 -0.1892 0.1219
-0.25690001 -0.1541 0.2148
-0.098920003 -0.01196 0.2096
-0.2026 -0.40270001 0.3804
-0.50639999 0.073830001 0.007119
-0.19159999 -0.29210001 0.33270001
-0.67199999 -0.1327 0.24160001
-0.1857 -0.14830001 0.65579998
-0.8477 -0.1406 0.1964
-0.25690001 -0.19499999 0.1441
-0.31690001 -0.1971 0.1163
-0.087339997 0.017069999 0.1825
-0.19159999 -0.1497 0.2376
-0.19159999 -0.32480001 0.31079999
-0.7378 0.12909999 0.1123
-0.098899998 -0.1032 0.27410001
-0.091250002 0.027000001 0.35499999
-0.27669999 0.073559999 0.003419
-0.1477 -0.1856 0.14830001
-0.54390001 -0.1494 0.20039999
-0.63980001 0.1223 0.096989997
-0.95700002 0.080470003 -0.002654
-0.14210001 -0.1737 0.2218
-0.16689999 -0.2809 0.30669999
-0.089589998 -0.046500001 0.46990001
-0.92400002 -0.18430001 0.1118
-0.079750001 0.021299999 0.1464
-0.2242 0.1469 0.1592
-0.32800001 -0.169 0.21690001
-0.29530001 0.1044 0.113
-0.092830002 -0.075340003 0.421
-0.09843 -0.3378 0.3066
-0.93330002 0.07322 -0.0209
-0.70550001 0.09471 0.083959997
-0.68360001 0.1531 0.1752
-0.19769999 0.124 0.1991
-0.44800001 0.1388 0.1357
-0.60149997 -0.17110001 0.1805
-0.1877 0.13240001 0.29030001
-0.19939999 -0.30919999 0.44260001
-0.1258 0.1355 0.1276
-0.2351 0.1436 0.26050001
-0.875 0.096919999 0.046009999
-0.89660001 0.1609 0.20100001
-0.31720001 0.090559997 0.030719999
-0.50809997 0.1081 0.1252
-0.91329998 0.086110003 0.01811
-0.88050002 0.1206 0.093319997
-0.3062 0.164 0.2131
-0.1053 -0.084040001 0.1358
-0.64529997 0.1117 0.075099997
-0.8642 -0.17290001 0.1246
-0.55229998 0.1172 0.16060001
-0.27340001 0.1525 0.294
-0.44299999 0.1026 0.056940001
-0.84710002 -0.14830001 0.17649999
-0.1044 -0.1503 0.2446
-0.1586 0.123 0.1824
-0.38280001 0.1117 0.13869999
-0.2078 0.09533 0.04214
-0.6631 0.047619998 0.107
-0.17470001 -0.18780001 0.17299999
-0.1428 -0.24259999 0.25350001
-0.9023 0.097050004 0.045910001
-0.80409998 -0.1163 0.3008
-0.50809997 0.13330001 0.22149999
-0.361 -0.1602 0.18790001
-0.83179998 -0.1661 0.13950001
-0.42640001 -0.2009 0.1124
-0.54390001 -0.13950001 0.3012
-0.69459999 -0.18870001 0.1081
-0.57419997 0.1099 0.07147
-0.57969999 0.1206 0.093319997
-0.62900001 -0.18629999 0.1165
-0.36090001 0.13240001 0.1202
-0.68910003 0.117 0.086029999
-0.37189999 0.1515 0.29010001
-0.20290001 -0.28490001 0.42719999
-0.73280001 0.1433 0.14740001
-0.83670002 0.1063 0.06408
-0.6103 0.073830001 0.007119
-0.1331 -0.19159999 0.3996
-0.5851 -0.1688 0.1895
-0.54140002 0.1525 0.294
-0.65609998 -0.1699 0.1436
-0.45950001 -0.1709 0.15530001
-0.52490002 -0.17299999 0.1824
-0.62889999 0.091870002 0.07632
-0.67799997 -0.17460001 0.1622
-0.40470001 -0.1971 0.1111
-0.39919999 0.09471 0.083959997
-0.26249999 0.14569999 0.1551
-0.54680002 -0.1684 0.1948
-0.86659998 -0.1331 0.2167
-0.09843 -0.32640001 0.322
-0.55790001 -0.15099999 0.19509999
-0.87489998 -0.1681 0.1618
-0.1769 -0.13789999 0.31670001
-0.66469997 0.068630002 0.2203
-0.56870002 0.148 0.27720001
-0.55769998 -0.1656 0.2025
-0.1531 -0.33680001 0.35769999
-0.30630001 0.079329997 -0.0065529998
-0.1999 -0.3344 0.28600001
-0.088509999 -0.13070001 0.2904
-0.2035 -0.36160001 0.29660001
-0.84210002 -0.15989999 0.1904
-0.74360001 -0.1464 0.1911
-0.098499998 -0.032400001 0.1355
-0.1038 -0.1785 0.2101
-0.1637 -0.1561 0.2189
-0.16940001 -0.182 0.19149999
-0.32139999 0.074239999 0.01123
-0.28799999 -0.2084 0.1026
-0.88050002 0.074759997 0.01534
-0.38800001 -0.16060001 0.2388
-0.29550001 -0.17 0.1705
-0.1532 0.073799998 0.1692
-0.63429999 0.1461 0.1552
-0.76550001 -0.1736 0.15629999
-0.5851 -0.1974 0.1076
-0.59609997 0.07773 -0.016100001
-0.2439 0.073559999 0.003419
-0.76010001 -0.19149999 0.1075
-0.092299998 0.02358 0.289
-0.95599997 0.1122 0.1034
-0.094099998 0.0086639998 0.43110001
-0.131 -0.1926 0.16329999
-0.34459999 -0.14659999 0.22939999
-0.5194 -0.1928 0.1257
-0.4267 0.078659996 -0.01107
-0.8915 -0.17820001 0.1138
-0.1001 -0.095600002 0.23980001
-0.1531 -0.32429999 0.32539999
-0.9023 0.123 0.1824
-0.4867 0.1371 0.13150001
-0.48120001 -0.1925 0.1301
-0.65990001 0.073559999 -0.020640001
-0.9734 0.081090003 0.001381
-0.83670002 -0.15350001 0.21179999
-0.18889999 -0.40059999 0.37630001
-0.66350001 -0.1171 0.1833
-0.31189999 -0.1393 0.26230001
-0.1206 0.041549999 0.1874
-0.4321 -0.19069999 0.1208
-0.2352 0.097050004 0.045910001
-0.61809999 -0.16410001 0.1591
-0.37709999 -0.15099999 0.2121
-0.1477 0.1063 0.064139999
-0.2296 -0.2014 0.12899999
-0.98339999 0.073250003 -0.001573
-0.1621 -0.27239999 0.31420001
-0.1312 0.17219999 0.27250001
-0.087240003 -0.1674 0.25049999
-0.28439999 0.1726 0.28349999
-0.55229998 0.088969998 0.026939999
-0.20200001 -0.29460001 0.2987
-0.47580001 0.093510002 0.038369998
-0.69999999 0.080300003 -0.00266
-0.12620001 0.073540002 0.3391
-0.8915 -0.1202 0.26230001
-0.1018 -0.024040001 0.3874
-0.9483 0.12809999 0.114
-0.50260001 -0.1754 0.1437
-0.86949998 0.13240001 0.1202
-0.51950002 -0.13609999 0.3136
-0.72729999 -0.1804 0.14040001
-0.42660001 0.1007 0.053300001
-0.5359 0.1724 0.2942
-0.2242 0.1717 0.26710001
-0.29519999 -0.1578 0.26069999
-0.31169999 -0.1813 0.17910001
-0.76560003 0.1494 0.2823
-0.33320001 0.1682 0.2357
-0.43200001 0.1189 0.089639999
-0.46259999 0.073559999 0.003419
-0.77100003 -0.16419999 0.18430001
-0.2015 -0.26019999 0.39700001
-0.76560003 0.1715 0.26159999
-0.361 -0.1416 0.24590001
-0.57969999 0.1727 0.28889999
-0.514 0.1727 0.28889999
-0.63980001 0.07553 0.0207
-0.28979999 0.1193 0.1683
-0.1058 -0.040539999 0.3326
-0.86949998 0.1206 0.1733
-0.84210002 -0.1637 0.1786
-0.1014 -0.1012 0.1741
-0.55779999 0.1691 0.2402
-0.1891 0.14219999 0.29800001
-0.78200001 0.141 0.25040001
-0.3829 -0.1367 0.26230001
-0.70550001 0.099079996 0.096450001
-0.1477 0.1715 0.2617
-0.19140001 0.077430002 0.03115
-0.1059 -0.0515 0.278
-0.071089998 0.125 0.1901
-0.15800001 -0.1531 0.6437
-0.092289999 -0.094240002 0.3809
-0.27340001 0.085969999 0.01825
-0.9774 0.073210001 -0.020850001
-0.50309998 0.099079996 0.096450001
-0.76020002 -0.1233 0.26710001
-0.26800001 0.1715 0.26159999
-0.66399997 0.099239998 0.2251
-0.098379999 -0.1811 0.1963
-0.09742 -0.1114 0.2615
-0.1058 -0.073430002 0.1577
-0.60420001 -0.1823 0.1246
-0.2031 -0.32859999 0.43399999
-0.13680001 -0.1366 0.30579999
-0.083240002 0.049240001 0.34369999
-0.45390001 0.079340003 -0.0065319999
-0.88059998 -0.1611 0.1459
-0.14910001 -0.1383 0.63889998
-0.78750002 0.1436 0.26050001
-0.33360001 0.1436 0.26050001
-0.3608 -0.1514 0.27689999
-0.092469998 0.0206 0.2726
-0.74910003 -0.1857 0.1239
-0.66170001 0.09533 0.04214
-0.54680002 -0.18340001 0.14929999
-0.31709999 -0.1453 0.30840001
-0.189 -0.33039999 0.43709999
-0.3651 0.074239999 0.01123
-0.098739997 -0.00038099999 0.2669
-0.1198 0.1417 0.1432
-0.37740001 -0.16949999 0.1648
-0.27900001 -0.1427 0.2518
-0.48120001 0.096089996 0.087789997
-0.71090001 0.1556 0.1842
-0.8312 0.079329997 -0.0065830001
-0.67229998 -0.1831 0.1382
-0.28940001 0.1619 0.20469999
-0.18979999 -0.289 0.4181
-0.3281 0.1059 0.064379998
-0.4646 -0.15009999 0.26879999
-0.66240001 -0.057870001 0.1508
-0.77670002 -0.1653 0.1444
-0.60710001 -0.14669999 0.20209999
-0.62900001 -0.1602 0.1663
-0.092830002 0.000742 0.1715
-0.31709999 -0.19490001 0.13860001
-0.077869996 0.041579999 0.2393
-0.1024 -0.1059 0.1849
-0.32260001 0.14470001 0.26449999
-0.19140001 0.098700002 0.04967
-0.1696 -0.1777 0.1622
-0.1027 -0.079039998 0.6318
-0.2899 -0.16339999 0.18610001
-0.61250001 0.1004 0.053470001
-0.33360001 0.080920003 0.001371
-0.16410001 0.093659997 0.0383
-0.29530001 0.124 0.1007
-0.1094 0.123 0.1824
-0.4808 0.1275 0.1997
-0.3281 0.1433 0.14740001
-0.1148 0.1115 0.075170003
-0.096359998 -0.1229 0.3994
-0.63440001 0.1136 0.078659996
-0.79250002 0.1275 0.1086
-0.34450001 0.1661 0.30379999
-0.1367 0.1162 0.1567
-0.1636 0.1629 0.2086
-0.3556 -0.13789999 0.26249999
-0.13510001 -0.2392 0.2455
-0.15809999 -0.34189999 0.33489999
-0.1523 0.092469998 0.26350001
-0.56330001 0.1355 0.1276
-0.7931 -0.15459999 0.1664
-0.63380003 0.1628 0.2087
-0.089879997 -0.01846 0.50739998
-0.5632 -0.1497 0.25740001
-0.2516 0.1193 0.1683
-0.2297 0.085709997 0.06027
-0.1891 -0.39469999 0.3976
-0.19059999 -0.27810001 0.3123
-0.3664 0.1504 0.1674
-0.1094 -0.3353 0.30970001
-0.7597 0.16769999 0.2317
-0.1586 -0.33289999 0.31279999
-0.7931 -0.16869999 0.13699999
-0.78200001 -0.18260001 0.113
-0.14219999 -0.32800001 0.39770001
-0.67809999 0.1044 0.113
-0.1397 0.072740003 0.25209999
-0.2023 -0.35440001 0.3089
-0.49219999 -0.1649 0.16599999
-0.2133 0.125 0.1901
-0.96249998 0.073090002 -0.01718
-0.75470001 0.1029 0.1081
-0.65079999 -0.1918 0.1058
-0.1053 -0.05734 0.1796
-0.2023 0.1257 0.1044
-0.88 0.1388 0.1357
-0.16410001 0.12630001 0.19509999
-0.1106 -0.1996 0.2008
-0.1859 -0.32870001 0.3978
-0.19750001 0.13349999 0.2437
-0.191 -0.31690001 0.4427
-0.1745 0.1082 0.1252
-0.59609997 -0.1283 0.3152
-0.87489998 -0.1754 0.1406
-0.1988 -0.40779999 0.35699999
-0.2295 0.077169999 -0.01353
-0.168 -0.1392 0.6487
-0.54140002 -0.1239 0.31
-0.8258 -0.1452 0.18619999
-0.8312 0.083099999 0.0526
-0.39879999 0.080339998 0.04335
-0.3391 -0.1577 0.19670001
-0.1714 0.1115 0.27779999
-0.126 -0.1312 0.63279998
-0.33880001 -0.15099999 0.2816
-0.73329997 -0.1496 0.18269999
-0.56870002 -0.1708 0.1849
-0.1911 -0.1899 0.1363
-0.20900001 -0.3619 0.3556
-0.1295 -0.09691 0.6408
-0.1049 -0.036570001 0.2615
-0.6591 -0.1392 0.2203
-0.26800001 -0.1609 0.1945
-0.56849998 -0.1388 0.30070001
-0.1847 -0.34 0.29890001
-0.084519997 0.04259 0.3326
-0.6178 -0.13519999 0.3091
-0.81489998 -0.1251 0.25130001
-0.088809997 0.033199999 0.29449999
-0.1866 0.12989999 0.27219999
-0.09307 0.02657 0.322
-0.5848 -0.15090001 0.25049999
-0.71630001 -0.18350001 0.1329
-0.1476 -0.14390001 0.31830001
-0.50309998 0.1107 0.1347
-0.2059 -0.2872 0.3601
-0.1257 -0.1679 0.244
-0.59600002 -0.1895 0.1277
-0.2516 -0.1886 0.1353
-0.9228 0.1445 0.1636
-0.1052 -0.046399999 0.2288
-0.2016 -0.4057 0.3696
-0.77249998 -0.1163 0.3089
-0.95029998 0.074239999 0.01123
-0.63980001 -0.138 0.2942
-0.89120001 -0.1566 0.1957
-0.2378 -0.1936 0.1499
-0.55190003 0.1296 0.20739999
-0.63440001 0.1093 0.12970001
-0.3441 0.13070001 0.116
-0.1859 0.081569999 0.047669999
-0.43200001 0.1149 0.1515
-0.8969 0.086110003 0.01811
-0.67250001 -0.1654 0.19069999
-0.66170001 -0.1374 0.294
-0.1055 0.02795 0.2026
-0.42640001 -0.18260001 0.1346
-0.55229998 0.1715 0.26159999
-0.53060001 -0.16760001 0.1575
-0.52490002 -0.169 0.19499999
-0.4483 -0.15719999 0.2441
-0.2298 -0.17299999 0.168
-0.74379998 -0.1556 0.16760001
-0.62349999 -0.1688 0.148
-0.34999999 0.1082 0.067749999
-0.9734 0.093659997 0.0383
-0.39919999 0.091930002 0.03461
-0.875 0.1079 0.067919999
-0.257 0.17209999 0.27250001
-0.72140002 0.1619 0.20469999
-0.76010001 0.1118 0.075010002
-0.69450003 0.091870002 0.07632
-0.55779999 0.1118 0.075010002
-0.75470001 0.073009998 -0.0119
-0.67220002 0.078419998 0.03568
-0.69450003 0.1321 0.21690001
-0.49720001 0.1417 0.1432
-0.83670002 0.097439997 0.091619998
-0.3281 0.123 0.1824
-0.4025 0.073830001 0.007119
-0.2242 0.148 0.27720001
-0.42109999 0.141 0.25040001
-0.34999999 0.1206 0.1733
-0.3008 0.1436 0.26050001
-0.19159999 -0.28119999 0.37090001
-0.73830003 0.076420002 0.02596
-0.67809999 0.141 0.25040001
-0.66039997 0.074239999 0.01123
-0.82029998 0.1149 0.1515
-0.61799997 0.1172 0.16060001
-0.175 -0.3389 0.34850001
-0.73280001 0.080920003 0.001396
-0.67790002 -0.176 0.1313
-0.1036 -0.0469 0.25650001
-0.3829 -0.20209999 0.1052
-0.37180001 -0.1917 0.1219
-0.1311 0.117 0.086010002
-0.51910001 0.1608 0.20100001
-0.26800001 0.075429998 -0.0099790003
-0.89139998 0.089139998 0.02689
-0.68370003 -0.1381 0.22040001
-0.42109999 0.1459 0.155
-0.63980001 -0.17829999 0.155
-0.77649999 -0.1561 0.2097
-0.55229998 0.1117 0.13869999
-0.19670001 -0.2597 0.3362
-0.1164 0.06583 0.35429999
-0.38280001 0.146 0.155
-0.37729999 0.1399 0.2465
-0.1147 0.03576 0.2212
-0.1912 0.1679 0.2361
-0.52450001 0.16769999 0.2318
-0.28760001 0.073830001 0.007119
-0.14219999 -0.34689999 0.3123
-0.094870001 -0.050620001 0.44690001
-0.2297 0.1582 0.1919
-0.7766 0.096089996 0.087789997
-0.91869998 0.099079996 0.096450001
-0.1275 0.054140002 0.22750001
-0.3062 -0.1894 0.1301
-0.88050002 0.07784 -0.017069999
-0.1696 -0.15260001 0.2296
-0.4589 0.13429999 0.2254
-0.92409998 -0.177 0.1314
-0.4745 0.074239999 0.01123
-0.35550001 0.164 0.2131
-0.3827 -0.18629999 0.15700001
-0.2624 -0.1979 0.1356
-0.08867 -0.1106 0.36039999
-0.3883 0.1675 0.2325
-0.2674 -0.154 0.2142
-0.9461 0.088890001 0.06865
-0.21340001 -0.1876 0.1392
-0.78149998 -0.126 0.3136
-0.08749 0.124 0.1007
-0.47580001 0.088890001 0.06865
-0.50309998 -0.1919 0.12970001
-0.63440001 -0.1279 0.31490001
-0.66390002 0.045120001 0.2185
-0.1312 -0.1524 0.3046
-0.273 0.107 0.1214
-0.24070001 -0.1947 0.1247
-0.1367 0.1433 0.14740001
-0.76560003 0.073009998 -0.0119
-0.58780003 -0.1937 0.1169
-0.096890002 -0.177 0.1725
-0.4156 -0.1693 0.2061
-0.90200001 -0.13609999 0.26609999
-0.66710001 -0.16949999 0.1787
-0.83670002 0.083760001 0.01029
-0.3883 0.13070001 0.21179999
-0.1048 -0.02572 0.31119999
-0.1604 -0.2683 0.30489999
-0.90780002 0.081569999 0.047669999
-0.72750002 -0.1666 0.1812
-0.17919999 -0.3055 0.3351
-0.19069999 -0.36700001 0.31220001
-0.1058 -0.1111 0.62889999
-0.094080001 0.01435 0.4093
-0.09747 0.01444 0.33289999
-0.67799997 -0.1874 0.1257
-0.7324 0.13429999 0.2254
-0.17839999 0.097860001 0.14470001
-0.33309999 0.107 0.1214
-0.70550001 0.1044 0.113
-0.094769999 -0.30270001 0.40200001
-0.89469999 0.1609 0.21690001
-0.44839999 -0.14309999 0.29949999
-0.79299998 0.076269999 -0.027009999
-0.40419999 0.1275 0.1086
-0.875 0.085709997 0.06027
-0.2058 -0.2872 0.37630001
-0.67269999 -0.12980001 0.2511
-0.71090001 0.15369999 0.29809999
-0.54689997 0.096749999 0.046050001
-0.175 0.125 0.1901
-0.1955 -0.366 0.29269999
-0.68349999 -0.169 0.1785
-0.2406 0.108 0.067840002
-0.1899 -0.4041 0.3547
-0.37729999 0.1365 0.23360001
-0.43200001 0.1515 0.29010001
-0.55779999 0.15449999 0.18009999
-0.56330001 0.087449998 0.022050001
-0.37729999 0.13070001 0.21179999
-0.69450003 0.082429998 0.0052689998
-0.5302 -0.1445 0.21619999
-0.80940002 0.1556 0.1842
-0.27340001 0.1007 0.053309999
-0.21870001 0.081569999 0.047669999
-0.35010001 -0.15360001 0.20819999
-0.1355 -0.1122 0.64420003
-0.66159999 -0.1336 0.23800001
-0.1513 -0.25470001 0.27810001
-0.74059999 0.073660001 -0.02516
-0.60159999 0.09471 0.083959997
-0.875 0.117 0.086029999
-0.21870001 0.092079997 0.034540001
-0.74919999 0.1206 0.093319997
-0.56330001 0.099079996 0.096450001
-0.91329998 -0.1842 0.1129
-0.3281 0.083760001 0.01029
-0.3116 -0.1708 0.2124
-0.26800001 0.1043 0.060630001
-0.52139997 -0.1258 0.31349999
-0.1531 0.1171 0.085960001
-0.78200001 0.14569999 0.2683
-0.2705 -0.13850001 0.271
-0.59060001 0.1007 0.053309999
-0.088299997 0.029759999 0.4312
-0.37729999 0.1433 0.14740001
