# .PCD v0.7 - Point Cloud Data file format
VERSION 0.7
FIELDS x y z
SIZE 4 4 4
TYPE F F F
COUNT 1 1 1
WIDTH 1626
HEIGHT 1
VIEWPOINT 0 0 0 1 0 0 0
POINTS 1626
DATA ascii
-0.0099290004 0.1013 0.51719999
0.2352 0.124 0.18629999
0.05469 0.099079996 0.096450001
0.16949999 0.15369999 0.29809999
-0.041069999 0.072760001 0.58350003
-0.027480001 0.086680003 0.39700001
0.02777 0.047880001 0.4163
0.090769999 -0.1005 0.4041
0.30930001 -0.15019999 0.28099999
0.019780001 0.1267 0.50099999
0.0053940001 0.1015 0.3635
0.2025 -0.1604 0.1938
0.26800001 0.1024 0.057020001
0.18880001 -0.2651 0.37639999
0.054189999 -0.049759999 0.56690001
-0.054680001 -0.30689999 0.36700001
0.1245 0.042100001 0.18960001
0.054510001 -0.1323 0.4249
0.0010930001 0.1194 0.5183
0.1723 0.18979999 0.57319999
-0.007638 0.07333 0.39820001
0.15360001 0.078419998 0.03568
-0.05291 -0.1654 0.32069999
0.3664 0.099079996 0.096450001
0.1744 -0.2674 0.33270001
0.2406 0.1114 0.075240001
0.1076 -0.15350001 0.4077
0.093089998 -0.01503 0.48390001
-0.076240003 -0.163 0.27270001
0.36090001 0.13779999 0.2387
-0.091849998 -0.062540002 0.63169998
0.1787 -0.3759 0.29879999
-0.036479998 -0.083760001 0.53780001
0.070610002 0.036150001 0.1568
0.2899 -0.1419 0.24600001
0.37189999 0.1219 0.1785
0.049229998 0.1318 0.1204
-0.01914 0.072959997 0.21259999
0.17900001 0.1168 0.16670001
0.1039 0.16590001 0.2235
0.1075 -0.1955 0.205
0.1367 -0.31020001 0.35510001
0.2845 -0.162 0.18430001
0.1099 -0.1451 0.31639999
0.098889999 -0.02963 0.278
-0.027860001 -0.20550001 0.2079
0.087509997 -0.1184 0.32179999
0.077189997 -0.072300002 0.4955
0.016729999 0.05957 0.106
0.057319999 -0.16500001 0.31020001
0.17389999 -0.354 0.30140001
0.38280001 0.1724 0.2942
0.19769999 0.2033 0.57340002
-0.032809999 0.060380001 0.23909999
0.02593 -0.02083 0.63440001
0.058340002 -0.30239999 0.40169999
0.1806 -0.1608 0.19419999
0.056600001 -0.081069998 0.51990002
0.4429 -0.16060001 0.2299
0.021880001 0.047830001 0.1794
-0.04862 0.026179999 0.2692
-0.077679999 0.0185 0.56169999
0.023700001 -0.000802 0.1027
0.005471 -0.33320001 0.31299999
-0.062490001 -0.147 0.35530001
-0.0328 0.047019999 0.17550001
0.47040001 -0.1258 0.3055
-0.04668 0.055659998 0.60979998
-0.03461 -0.052000001 0.59310001
-0.016799999 -0.1849 0.30590001
0.076300003 -0.1776 0.1688
0.098810002 0.001834 0.3691
0.21879999 0.088969998 0.026930001
0.016410001 0.05302 0.56529999
0.076389998 0.05339 0.49340001
0.060169999 0.1661 0.3039
0.027620001 -0.1578 0.38229999
0.44299999 0.1723 0.28889999
0.1585 -0.1681 0.22759999
0.07113 0.1728 0.289
0.0252 0.105 0.41769999
0.1592 -0.28639999 0.3779
0.065629996 -0.34599999 0.3161
0.0044840002 0.04459 0.64649999
0.1039 0.17129999 0.2617
-0.075269997 -0.0082710003 0.55720001
-0.03827 0.039489999 0.38659999
0.1251 -0.22480001 0.23909999
-0.076669998 0.058320001 0.43099999
0.31729999 -0.1961 0.1152
0.36629999 -0.2014 0.1126
0.09787 0.000245 0.41690001
0.1586 0.1079 0.067919999
0.063429996 0.091059998 0.073509999
-0.01047 0.079729997 0.24519999
0.2351 -0.1516 0.2825
0.257 0.17200001 0.2942
0.082010001 -0.1684 0.2332
0.164 -0.15099999 0.292
-0.059629999 0.074069999 0.35460001
0.4206 -0.1459 0.28749999
0.097659998 -0.1235 0.39739999
0.1202 -0.1777 0.19859999
0.062990002 -0.1499 0.26699999
0.037129998 0.055569999 0.4628
-0.038899999 -0.2093 0.17730001
0.077189997 -0.1332 0.333
0.45379999 -0.1743 0.184
0.1023 -0.1169 0.1084
0.1111 0.063620001 0.3416
0.16599999 -0.30419999 0.3389
0.027349999 0.03664 0.26460001
-0.020470001 0.1148 0.46509999
0.023940001 0.032960001 0.6455
0.016380001 -0.07305 0.56849998
0.34999999 0.1097 0.071549997
0.39379999 0.123 0.1824
0.32820001 -0.12909999 0.30540001
0.07147 0.032960001 0.58130002
0.1758 -0.28209999 0.4082
0.01061 0.01477 0.29589999
-0.03407 -0.1697 0.33919999
0.1023 -0.040819999 0.19599999
0.21879999 -0.15449999 0.2096
0.3283 -0.14910001 0.2836
0.1912 -0.33950001 0.41060001
0.081639998 -0.1743 0.1381
0.32820001 -0.1437 0.2366
-0.01052 0.063259996 0.43610001
0.087389998 -0.0096000005 0.51709998
0.01664 0.058940001 0.21600001
0.1303 0.080339998 0.3292
-0.009323 0.05274 0.29100001
-0.077710003 -0.082840003 0.4747
-0.071050003 -0.077440001 0.4962
0.076530002 0.034929998 0.52770001
-0.02211 0.1172 0.4975
0.1477 0.1389 0.2427
-0.01142 0.035409998 0.37630001
0.082000002 -0.17470001 0.2115
0.1645 0.107 0.1214
0.37180001 -0.1618 0.2317
-0.071709998 0.01403 0.59240001
0.1039 -0.3256 0.40630001
-0.086879998 -0.04346 0.4874
0.086920001 -0.15109999 0.2068
-0.065619998 -0.32690001 0.4025
0.1531 -0.3055 0.3716
0.24609999 0.1485 0.1639
0.104 -0.15279999 0.2242
0.097209997 -0.034899998 0.46360001
0.1433 -0.24150001 0.3698
-0.06656 -0.05085 0.54640001
-0.07835 -0.1191 0.38319999
0.01595 -0.0139 0.5794
0.40470001 -0.1629 0.1749
0.021880001 0.062350001 0.2483
0.3829 -0.1618 0.1788
0.042569999 0.023259999 0.30950001
0.087959997 0.1286 0.2036
0.2367 0.074199997 0.01074
0.0119 0.071269996 0.37079999
0.078479998 0.036869999 0.25600001
0.30630001 0.089139998 0.02689
0.01412 -0.2 0.2484
-0.0094480002 0.099239998 0.34310001
0.1955 -0.34119999 0.33829999
0.3554 -0.17479999 0.18970001
0.040029999 -0.1189 0.47099999
0.042259999 0.039659999 0.1401
-0.065509997 -0.1437 0.2911
0.1793 0.095100001 0.1296
-0.03951 -0.01207 0.63309997
0.077749997 0.01943 0.55049998
0.1805 0.1023 0.057089999
0.28439999 0.15549999 0.1842
0.075609997 -0.155 0.28830001
0.3064 -0.16500001 0.17659999
0.1238 -0.1893 0.4003
0.069959998 0.062700003 0.33629999
0.14219999 0.1432 0.14740001
-0.06481 0.04854 0.58099997
0.2025 -0.1857 0.13770001
-0.032809999 0.125 0.1901
0.34999999 0.1206 0.1733
0.1313 0.09471 0.083959997
-0.082029998 -0.308 0.36309999
0.42120001 -0.18440001 0.13060001
0.17470001 -0.32699999 0.4348
0.2192 0.107 0.1214
0.19149999 -0.1472 0.2351
0.24600001 -0.189 0.1548
-0.001823 0.072760001 0.2832
0.060619999 0.13429999 0.2254
0.345 0.13429999 0.2254
0.35049999 0.12890001 0.1123
0.0055189999 0.03582 0.2658
-0.01043 0.066399999 0.13079999
0.02778 0.1108 0.498
0.1696 -0.1529 0.21879999
0.065899998 0.01371 0.1003
-0.049460001 -0.1822 0.27559999
0.1886 -0.3414 0.3053
0.1094 0.1041 0.060699999
-0.059719998 0.074110001 0.42570001
0.077859998 -0.092050001 0.45370001
-0.0579 0.066349998 0.5298
0.1098 0.1286 0.2036
-0.01639 -0.34689999 0.3123
0.1696 -0.13600001 0.28400001
0.37180001 -0.1547 0.25729999
-0.051199999 -0.15099999 0.37740001
0.083470002 0.0305 0.5018
0.042629998 -0.085790001 0.53380001
0.193 -0.35159999 0.39750001
0.026620001 0.066930003 0.3427
0.072630003 0.02703 0.1349
0.176 -0.39070001 0.37639999
0.07564 -0.1113 0.4251
-0.043030001 0.059319999 0.2588
0.103 -0.040649999 0.2999
0.16410001 0.093510002 0.03836
-0.064209998 -0.1213 0.4249
0.064850003 0.062919997 0.52539998
0.039379999 -0.1838 0.28529999
0.052299999 0.1954 0.25310001
0.082039997 -0.32409999 0.40880001
0.022329999 0.1353 0.22920001
-0.0053500002 0.089539997 0.54579997
0.1004 -0.067160003 0.37619999
0.28439999 -0.15440001 0.26679999
0.090340003 -0.1592 0.1363
0.071560003 -0.34189999 0.33489999
0.042709999 0.1108 0.51670003
0.164 -0.1744 0.2059
0.1551 0.072250001 0.1504
0.1013 -0.079089999 0.21789999
0.16410001 0.09471 0.083959997
0.01561 -0.17910001 0.33149999
0.25709999 -0.13060001 0.3055
0.1586 0.1206 0.1733
0.3831 0.161 0.20100001
0.20819999 -0.1556 0.26910001
0.082039997 -0.3405 0.30410001
0.3233 0.1275 0.1086
0.1016 -0.084559999 0.1741
0.1025 -0.0296 0.37099999
0.097800002 -0.032499999 0.1647
0.1463 -0.26449999 0.29629999
0.045400001 0.046879999 0.32710001
-0.048119999 0.0524 0.31079999
0.27340001 0.1127 0.1426
-0.0306 0.074830003 0.59710002
0.2899 0.088890001 0.06865
0.067359999 0.048119999 0.2156
-0.0055510001 -0.096709996 0.52939999
0.1768 -0.3414 0.38190001
-0.047600001 0.018650001 0.28470001
0.1803 0.14120001 0.25029999
0.1149 0.1698 0.2455
0.038290001 -0.34 0.34330001
3.0000001e-06 0.17030001 0.2509
0.31720001 0.17200001 0.2942
-0.0081559997 0.062749997 0.3554
0.1258 -0.1418 0.26230001
0.096519999 -0.02478 0.1195
-0.046670001 0.068769999 0.37130001
-0.044799998 -0.121 0.45860001
0.30090001 -0.1453 0.2332
-0.047959998 0.074079998 0.29440001
0.1477 0.1044 0.113
-0.039489999 -0.1417 0.41569999
-0.072750002 0.058729999 0.31040001
0.1477 0.085709997 0.06027
-0.076870002 -0.1348 0.3529
0.3883 0.1044 0.113
0.2352 0.15449999 0.18009999
-0.01015 -0.16 0.39379999
-0.01109 0.086489998 0.30399999
0.027380001 0.03077 0.345
0.064510003 -0.16329999 0.1988
0.065629996 0.1693 0.2402
0.0383 0.0080739995 0.1005
-0.076169997 -0.176 0.223
-0.021919999 0.059250001 0.4702
0.097769998 -0.13950001 0.097879998
0.3391 -0.171 0.16069999
0.4156 0.14470001 0.26449999
0.0056369998 -0.221 0.1576
0.26800001 -0.1608 0.1884
-0.04005 0.068740003 0.4639
0.16410001 -0.1408 0.26199999
0.1039 -0.095260002 0.1303
-0.021880001 0.051860001 0.44510001
0.077820003 0.054450002 0.31470001
0.12630001 -0.18719999 0.1689
0.1531 0.1567 0.1881
0.1425 -0.17120001 0.1716
0.13680001 -0.1356 0.29480001
0.3391 0.082429998 0.0052700001
0.44299999 -0.13060001 0.27849999
0.2405 -0.1462 0.3044
0.097379997 -0.076059997 0.3599
0.24609999 0.1251 0.1048
0.04865 0.084109999 0.3554
0.24609999 0.16779999 0.23639999
-0.080090001 -0.01397 0.54180002
0.016410001 -0.31659999 0.33939999
0.1542 -0.26820001 0.3653
0.28979999 -0.1696 0.21170001
0.09172 -0.13420001 0.1851
0.01094 -0.30829999 0.36309999
0.076569997 0.1472 0.1592
0.044429999 0.04143 0.37079999
0.38850001 0.1682 0.2357
0.40470001 0.13779999 0.2387
0.25150001 0.090300001 0.072269998
0.32820001 -0.18000001 0.1426
0.0054779998 0.15449999 0.18009999
0.1013 -0.035330001 0.40400001
0.05469 0.14569999 0.2683
-0.086240001 -0.0348 0.51289999
0.30630001 0.1193 0.1683
-0.075290002 -0.1027 0.43650001
0.1768 -0.28670001 0.3545
0.03303 0.057459999 0.096390001
0.031470001 -0.080779999 0.54540002
0.082039997 0.1525 0.294
0.2352 -0.16760001 0.17399999
-0.0044120001 0.1318 0.48969999
0.21349999 -0.1883 0.1592
0.1586 -0.16249999 0.1911
-0.01871 0.083020002 0.33219999
0.019330001 0.092739999 0.38370001
0.1567 -0.28510001 0.36140001
0.03283 0.1203 0.093440004
0.054760002 0.05962 0.29960001
0.02228 0.039009999 0.3915
0.065140001 -0.0080089998 0.60149997
-0.061629999 0.065250002 0.27200001
0.42120001 -0.13420001 0.2656
0.30070001 -0.1451 0.30289999
0.1838 -0.31020001 0.4434
0.061409999 -0.2 0.1407
-0.01637 0.02688 0.31279999
-0.05311 0.079259999 0.40380001
0.2298 -0.19850001 0.1294
0.1805 0.1594 0.19660001
-0.065109998 0.067919999 0.46959999
0.086960003 0.01483 0.1867
-0.055289999 -0.029510001 0.62230003
0.257 0.154 0.1802
0.257 0.094870001 0.042339999
0.01011 0.1116 0.47639999
0.028720001 0.089809999 0.25670001
-0.081919998 0.040059999 0.4693
-0.0583 0.074249998 0.4558
-0.04758 0.062279999 0.15270001
0.27950001 -0.1601 0.2457
-0.028650001 0.077569999 0.29699999
0.1363 -0.2464 0.2656
0.1023 -0.04603 0.28349999
0.41010001 -0.1566 0.1902
0.175 -0.25760001 0.3714
0.005475 0.03748 0.40689999
-0.01596 -0.070979998 0.57169998
-0.01725 0.048730001 0.64020002
-0.0189 0.05147 0.1136
0.2297 0.077430002 0.03115
0.099969998 0.049559999 0.3635
0.4488 -0.16779999 0.205
0.102 -0.051879998 0.3436
0.31709999 -0.18099999 0.1735
0.047400001 0.039969999 0.56800002
0.3281 0.15260001 0.1754
0.2077 -0.16850001 0.22229999
0.175 0.1365 0.1318
0.34459999 -0.1288 0.30540001
-0.02187 0.1257 0.1044
0.361 -0.1794 0.1424
0.2899 0.074759997 0.01534
0.1203 -0.3256 0.40630001
-0.054680001 0.1172 0.16060001
0.182 0.074199997 0.01074
0.27340001 0.1172 0.16060001
0.1127 0.1231 0.59429997
-0.04862 -0.084760003 0.5244
-0.025289999 0.080750003 0.41209999
0.060649998 0.073590003 0.30759999
0.33919999 -0.13169999 0.28960001
-0.0054580001 0.1436 0.26050001
0.164 -0.34029999 0.30379999
-0.01546 0.070280001 0.25749999
0.18099999 -0.2034 0.1195
0.2516 0.1494 0.2823
0.04025 0.084360003 0.44749999
0.068580002 0.1997 0.27079999
-0.0082799997 0.087360002 0.47999999
0.2406 0.1186 0.089780003
0.1322 0.154 0.57990003
0.088129997 0.0352 0.42390001
0.1258 -0.32429999 0.32539999
-0.069820002 -0.02874 0.56629997
0.3064 -0.1937 0.1373
0.000195 -0.2049 0.2419
0.1036 -0.0625 0.1249
0.087789997 0.1127 0.58950001
0.1956 -0.30340001 0.36000001
0.055500001 0.079680003 0.45590001
-0.068850003 0.066380002 0.37090001
0.01186 -0.1551 0.4012
0.08055 0.04685 0.28889999
0.01626 -0.098240003 0.52850002
0.083509997 -0.002356 0.53530002
0.05105 0.053029999 0.1455
0.0050320001 0.070050001 0.14749999
-0.032839999 0.090130001 0.38229999
0.026000001 -0.189 0.2782
0.093400002 -0.066799998 0.42559999
-0.080990002 0.033459999 0.51370001
-0.037349999 -0.13420001 0.43669999
0.1017 -0.0623 0.2834
0.088100001 -0.0405 0.4962
0.1709 0.12809999 0.30590001
0.1768 -0.30309999 0.3272
-0.004861 0.1017 0.43509999
0.0050019999 -0.044539999 0.61940002
0.1891 0.2203 0.55580002
0.042319998 0.068790004 0.442
-0.0164 0.164 0.2131
-0.01079 0.06329 0.1847
0.093120001 -0.087480001 0.3953
0.26269999 -0.19939999 0.1127
0.081239998 0.050310001 0.40560001
0.1294 -0.20909999 0.39520001
0.4102 -0.1277 0.30230001
-0.024599999 0.086750001 0.2438
0.021919999 0.05675 0.45860001
0.092969999 0.01805 0.4506
0.08608 0.0096530002 0.51969999
0.1564 0.1601 0.58289999
0.38820001 -0.1789 0.1416
0.37740001 0.1515 0.29010001
0.1476 0.1034 0.31940001
0.02554 -0.2145 0.1609
0.058809999 0.005316 0.61659998
0.05367 0.052209999 0.17739999
0.1313 -0.1869 0.1388
0.28979999 -0.1855 0.1622
0.003117 0.08574 0.58160001
-0.073619999 -0.01221 0.57249999
-0.05477 -0.02376 0.5808
-0.02155 -0.12909999 0.46650001
0.1768 -0.38510001 0.3545
0.16410001 -0.32910001 0.39250001
0.43220001 0.1666 0.22849999
0.067199998 0.1068 0.57700002
0.2958 -0.1825 0.1397
-3.1e-05 -0.082659997 0.55650002
0.4325 0.13330001 0.22149999
-0.02221 0.058660001 0.62889999
0.044050001 -0.19580001 0.2186
0.01685 -0.14569999 0.42500001
0.1763 0.1217 0.27779999
-0.084339999 -0.068680003 0.46439999
0.20990001 -0.2085 0.1029
0.114 -0.18539999 0.1781
0.02159 -0.047669999 0.61070001
0.03263 0.074879996 0.18170001
0.235 -0.15719999 0.2604
-0.032809999 0.17030001 0.2509
0.061980002 0.05026 0.1908
0.046549998 0.045740001 0.1168
0.055769999 0.069389999 0.26570001
0.2245 -0.1779 0.15189999
0.1884 -0.34130001 0.42559999
8.9000001e-05 -0.2097 0.2093
0.094910003 -0.01279 0.2013
0.005479 0.096859999 0.4946
0.1027 -0.0079840003 0.3928
0.37740001 -0.1279 0.30340001
0.34490001 -0.1785 0.17919999
-0.03827 0.1724 0.2942
0.067610003 0.070880003 0.44549999
0.041639999 0.105 0.50080001
-0.054099999 -0.1882 0.2253
0.05528 -0.1761 0.27450001
0.036589999 -0.1046 0.50569999
0.0469 -0.039659999 0.59899998
0.24609999 0.16329999 0.2133
0.080559999 0.03057 0.198
0.048590001 0.085670002 0.3705
0.36140001 0.1286 0.2036
0.36140001 0.1081 0.1252
0.076339997 0.080580004 0.61159998
0.005471 0.09087 0.32249999
0.02736 0.1494 0.2823
-0.054680001 0.15369999 0.29809999
0.043370001 0.063299999 0.3928
0.076080002 -0.083870001 0.48179999
0.093889996 -0.1415 0.1521
0.1732 -0.3188 0.3303
-0.036619999 0.050170001 0.4364
0.077540003 -0.15360001 0.2183
0.019130001 0.089979999 0.34259999
0.066469997 -0.036940001 0.56650001
0.028379999 -0.06112 0.57660002
-0.043790001 -0.2007 0.19850001
0.021810001 0.03272 0.3594
0.044769999 -0.15620001 0.37259999
0.01015 0.07925 0.3962
0.1169 -0.2101 0.208
0.18629999 -0.38730001 0.41569999
0.063529998 0.072410002 0.42199999
-0.000108 -0.1904 0.29890001
-0.07158 -0.096519999 0.46740001
-0.064630002 -0.15449999 0.32339999
0.065629996 0.13070001 0.21179999
0.03028 0.068960004 0.2924
0.43790001 -0.14910001 0.27289999
0.019859999 0.044799998 0.1285
0.093560003 -0.005192 0.18340001
0.096929997 -0.0026370001 0.28349999
0.092770003 -0.17380001 0.1543
-0.056219999 -0.055199999 0.61119998
0.082029998 -0.15800001 0.1934
-0.027489999 0.072010003 0.3928
0.01095 -0.3477 0.30840001
0.016869999 -0.34189999 0.33489999
-0.01636 -0.06244 0.5855
0.32269999 0.076420002 0.02596
0.08805 0.02949 0.3141
-0.064900003 -0.077909999 0.50989997
-0.016209999 0.1023 0.4716
0.01068 0.05841 0.50309998
0.29519999 -0.1515 0.27700001
0.175 0.1661 0.30379999
0.1857 0.13169999 0.26199999
-0.01822 0.02358 0.2674
0.36649999 -0.17030001 0.1604
-0.065710001 0.040040001 0.149
0.09888 -0.1205 0.41580001
0.046720002 -0.03779 0.58359998
0.18889999 -0.30309999 0.43099999
0.04617 0.03066 0.32159999
2.9000001e-05 0.051479999 0.26289999
-0.066409998 -0.063919999 0.53500003
0.164 -0.15449999 0.27779999
-0.062199999 -0.1353 0.3994
0.01124 -0.2148 0.1908
-0.043729998 0.063359998 0.56309998
0.042440001 0.057840001 0.43099999
0.054869998 -0.2 0.1708
0.31169999 0.14470001 0.26449999
0.1039 -0.34599999 0.3161
0.081479996 -0.16140001 0.2586
0.016419999 0.019880001 0.26840001
-0.08783 -0.1067 0.41839999
0.1311 -0.1497 0.30059999
-0.032809999 0.046319999 0.26440001
0.065679997 -0.019069999 0.5916
0.098159999 -0.018850001 0.2877
0.29539999 -0.1365 0.26769999
0.01096 0.052790001 0.1895
0.01092 -0.1653 0.3714
-0.081519999 -0.02547 0.53039998
0.1009 0.1176 0.58410001
-0.02606 -0.093539998 0.53259999
-0.038720001 0.063340001 0.30970001
0.06622 -0.14910001 0.34029999
0.2789 0.148 0.27720001
0.24609999 -0.16429999 0.23360001
-0.03878 -0.049059998 0.6074
0.1476 -0.20389999 0.1203
0.068999998 0.096500002 0.58999997
0.37189999 0.14569999 0.2683
0.1258 0.1399 0.2465
0.32269999 0.091930002 0.03461
0.1149 0.1556 0.1842
0.1478 -0.13339999 0.31029999
0.1944 -0.3626 0.36539999
0.094520003 -0.098700002 0.3276
0.049679998 0.107 0.1214
0.071099997 0.1561 0.1838
0.049219999 -0.308 0.36309999
0.037250001 0.064029999 0.50269997
-0.068570003 0.049869999 0.21799999
-0.02368 0.081739999 0.223
0.41010001 -0.18189999 0.16410001
0.097929999 -0.02283 0.176
0.26249999 0.1004 0.1004
0.016410001 0.1004 0.1004
0.1373 0.068000004 0.23800001
0.1883 -0.29190001 0.32159999
0.40459999 -0.17380001 0.1893
0.29030001 0.080339998 0.04335
0.0059179999 0.1628 0.2086
0.044179998 0.082709998 0.2599
0.096430004 -0.089139998 0.35440001
0.26249999 -0.14820001 0.29390001
0.005475 0.123 0.1824
0.176 0.132 0.2218
0.1859 0.077430002 0.03115
0.066210002 0.063660003 0.50080001
0.31709999 -0.18780001 0.1533
0.36649999 -0.1505 0.2113
0.088140003 -0.1002 0.3768
0.17569999 -0.26449999 0.403
0.2406 0.1127 0.14229999
-0.054930001 0.063639998 0.2393
0.38280001 0.1415 0.1437
-0.078550003 -0.069899999 0.62159997
0.26300001 0.1081 0.1252
0.045299999 0.1068 0.083570004
-0.0079920003 -0.1556 0.40700001
0.44299999 -0.1708 0.1552
0.24600001 -0.18359999 0.1709
0.09499 -0.090379998 0.3163
0.178 -0.36770001 0.43309999
0.095129997 0.02386 0.37650001
-0.066059999 -0.13940001 0.377
-0.0359 0.079850003 0.53240001
0.02307 0.067400001 0.1744
0.01688 -0.1382 0.44310001
-0.0056309998 -0.1745 0.34439999
0.092720002 0.036929999 0.3545
0.02736 0.1321 0.1203
0.089759998 -0.1432 0.1957
0.47029999 -0.1367 0.3141
-0.054680001 -0.34 0.30419999
0.17399999 -0.33719999 0.36899999
0.042909998 0.051929999 0.19859999
0.063809998 0.034090001 0.1154
0.022260001 0.069339998 0.22319999
0.087130003 0.0050539998 0.1461
0.087990001 -0.13609999 0.2448
0.3391 0.15369999 0.29809999
0.069990002 0.05658 0.29539999
-0.071520001 -0.1003 0.45269999
-0.05139 0.072690003 0.31439999
0.2078 0.1504 0.1674
0.37729999 -0.1982 0.1202
0.139 0.17550001 0.56569999
-0.0337 0.067730002 0.3317
0.029060001 -0.093699999 0.53060001
0.01142 0.07017 0.2087
0.091779999 -0.021579999 0.082740001
-0.07632 -0.116 0.40279999
0.32269999 0.1017 0.1042
0.033270001 0.1081 0.1252
0.098439999 0.12630001 0.19509999
0.26300001 0.1684 0.23559999
0.1013 -0.04659 0.1085
0.1347 0.1416 0.5851
0.37740001 0.12 0.093589999
0.3721 0.1628 0.2089
0.1039 0.1017 0.1042
0.2296 -0.16320001 0.2388
-0.056710001 0.060180001 0.5783
0.34450001 0.1137 0.14650001
-0.021269999 0.071209997 0.5334
0.1891 -0.40079999 0.37630001
0.2352 0.089139998 0.02689
0.1312 -0.1751 0.2062
0.1476 -0.1661 0.23549999
0.28470001 -0.1816 0.1742
0.197 -0.2031 0.1191
0.175 0.097439997 0.091619998
-0.0328 0.1515 0.29010001
0.42649999 -0.19760001 0.1188
0.1533 -0.16760001 0.17900001
0.082489997 0.1081 0.1252
-0.0306 0.1029 0.44620001
-0.059969999 0.1354 0.1279
0.1918 0.1286 0.1125
0.43759999 -0.1534 0.19760001
0.33360001 0.1162 0.1567
-0.088 0.0082759997 0.50730002
0.087499999 -0.3267 0.3222
0.058279999 0.061110001 0.5535
0.082500003 0.1417 0.1432
0.2588 -0.2071 0.1023
0.0845 -0.096280001 0.41530001
0.093730003 0.027760001 0.39089999
0.01901 0.090209998 0.4702
0.083949998 0.02578 0.26140001
0.2516 0.15800001 0.1919
0.042199999 0.080880001 0.34400001
0.14219999 -0.14049999 0.26730001
0.0079469997 0.074699998 0.17299999
0.2133 0.087099999 0.063960001
-0.001814 0.02516 0.3321
0.04355 0.05421 0.37830001
-0.05023 -0.16069999 0.34959999
0.43259999 -0.14380001 0.29499999
0.076569997 0.1135 0.078749999
0.1531 0.1252 0.1047
0.34540001 0.073210001 -0.002238
0.2911 0.075470001 -0.01334
0.088069998 -0.1053 0.3603
0.1312 0.098870002 0.049630001
-0.01737 0.095600002 0.39680001
0.39919999 0.1149 0.1515
0.062059999 0.04321 0.1398
0.1258 0.090400003 0.072520003
0.1752 -0.38029999 0.41980001
0.043680001 0.069530003 0.2773
0.065990001 -0.1883 0.1635
0.074340001 0.031769998 0.54659998
0.31720001 0.1429 0.14749999
0.047540002 0.082539998 0.48559999
0.085639998 0.1265 0.57520002
-0.059069999 0.041340001 0.1309
0.27340001 -0.17 0.21179999
0.03988 -0.1134 0.48719999
0.02234 -0.3026 0.3987
0.2132 -0.16500001 0.2339
0.097429998 -0.1226 0.14129999
0.1094 0.14669999 0.27219999
0.098439999 -0.057780001 0.40360001
0.032820001 0.1525 0.294
0.1179 0.1383 0.57770002
0.059939999 0.068360001 0.28009999
0.03977 -0.1376 0.43270001
0.2735 0.075269997 -0.0104
-0.084540002 0.034869999 0.49649999
0.1032 -0.1891 0.1715
0.123 -0.22840001 0.22660001
0.084179997 -0.13429999 0.26730001
-0.032559998 0.068690002 0.50819999
0.01558 -0.1177 0.4932
0.2297 0.084739998 0.01427
0.0933 0.081830002 0.047899999
0.048870001 0.071290001 0.31290001
-0.042769998 0.085170001 0.39829999
0.30070001 -0.20280001 0.1132
-0.030130001 0.094889998 0.458
0.086929999 -0.0096519999 0.076909997
0.1045 -0.02925 0.33419999
-0.08202 -0.3184 0.33579999
-0.02187 -0.3353 0.30970001
-0.0328 0.053010002 0.56529999
-0.075499997 -0.05869 0.51349998
0.076789998 -0.01306 0.5503
-0.063840002 -0.1865 0.1945
0.17569999 -0.26010001 0.34439999
0.084849998 -0.085469998 0.43709999
-0.02244 0.0559 0.414
0.1846 0.13169999 0.27790001
0.2079 -0.1805 0.14830001
0.36090001 0.15369999 0.29809999
-0.0065040002 0.01788 0.29409999
-0.02385 -0.21520001 0.175
0.2193 -0.1936 0.1236
0.081809998 -0.1672 0.1742
0.052379999 -0.18089999 0.25659999
0.03039 0.086779997 0.38060001
0.0057740002 -0.19840001 0.2586
0.032820001 0.02502 0.31779999
0.19400001 0.1427 0.27810001
0.18979999 0.14229999 0.29879999
0.089989997 -0.107 0.3163
0.055210002 0.070419997 0.35409999
0.1259 -0.1464 0.31369999
0.095629998 -0.090350002 0.2836
-0.002847 -0.07288 0.5679
0.09719 -0.07858 0.3818
-0.0111 0.1114 0.4294
-0.051800001 0.07615 0.51859999
0.075800002 0.045230001 0.2739
-0.02187 0.040589999 0.38170001
-0.081809998 -0.06075 0.4878
0.2023 0.1548 0.30109999
0.098499998 -0.01559 0.27399999
-0.037689999 0.053169999 0.6232
0.081639998 -0.062029999 0.48930001
0.071790002 -0.01123 0.58090001
0.01098 0.05663 0.45210001
0.1157 -0.17649999 0.1611
0.094120003 -0.1283 0.1741
-0.019549999 0.07824 0.23450001
-0.01201 0.056790002 0.22130001
-0.046289999 0.081490003 0.50770003
-0.069119997 -0.16419999 0.28310001
-0.038180001 0.03331 0.3497
0.095530003 0.0090500005 0.44209999
-0.03317 0.114 0.4923
0.1768 -0.29210001 0.3874
0.051440001 -0.2062 0.13609999
0.24070001 -0.1798 0.148
0.040550001 -0.20550001 0.1899
-0.077930003 -0.17399999 0.1865
0.059250001 0.07367 0.46630001
0.020780001 -0.01183 0.6415
0.049090002 -0.096440002 0.50349998
0.046980001 0.081749998 0.50129998
0.1186 -0.1895 0.13770001
-0.026629999 0.06825 0.4853
0.1039 -0.07886 0.185
-0.03655 0.098509997 0.4743
0.02736 0.058669999 0.25889999
0.031629998 0.082050003 0.55610001
-0.0035359999 0.058290001 0.40090001
0.098920003 -0.04524 0.42969999
0.084090002 -0.1234 0.3109
0.1038 -0.035119999 0.3163
0.086450003 0.02231 0.27399999
0.16410001 0.098700002 0.049660001
-0.076090001 -0.1392 0.34130001
0.2297 0.1006 0.053399999
-0.040580001 -0.18359999 0.28999999
0.1744 -0.3193 0.29699999
0.1149 -0.1462 0.2455
0.02775 0.053630002 0.4436
-0.00562 -0.1847 0.31119999
0.0098059997 0.134 0.50050002
-0.038139999 0.074259996 0.45300001
0.071869999 0.04637 0.52810001
0.084930003 0.04281 0.4147
0.1805 0.096759997 0.046069998
0.089380004 -0.079410002 0.42590001
-0.01514 0.009331 0.65039998
0.0053409999 -0.1108 0.50800002
0.09922 -0.0025919999 0.40329999
0.08106 0.050250001 0.36719999
0.1021 -0.062399998 0.2124
0.062120002 -0.1243 0.4303
0.077310003 -0.1045 0.43560001
0.16410001 0.088979997 0.026939999
0.064620003 0.2121 0.26699999
0.3883 0.080750003 0.001437
-0.02282 -0.1864 0.29530001
0.104 -0.0898 0.14129999
-0.02533 -0.1005 0.5158
0.2904 -0.1753 0.1542
-0.074359998 0.054880001 0.46939999
0.061330002 -0.1611 0.2949
0.1021 -0.067850001 0.1795
0.44839999 -0.1383 0.2455
0.042289998 0.074160002 0.43099999
0.035440002 0.054469999 0.084770001
0.2078 0.1149 0.1515
0.084849998 -0.024769999 0.51929998
0.42109999 0.1719 0.26710001
0.1022 -0.078910001 0.1522
0.1477 0.096089996 0.087789997
0.1586 -0.1357 0.28929999
-0.04778 0.046920002 0.32170001
0.06741 0.082850002 0.60360003
0.1367 0.122 0.097149998
0.04631 0.057720002 0.32159999
0.18089999 -0.15090001 0.2229
0.082039997 0.17020001 0.2455
0.18000001 -0.40009999 0.32730001
-0.048450001 0.041439999 0.3053
-0.004156 0.058260001 0.41639999
0.31400001 0.073749997 0.0059779999
0.1109 -0.20730001 0.1978
0.1028 -0.02957 0.41460001
0.096309997 -0.1014 0.2454
0.083860002 0.024940001 0.5126
0.35550001 0.14229999 0.2554
0.01017 0.07897 0.22849999
0.069820002 0.06724 0.35089999
-0.071079999 -0.34 0.30419999
0.09245 -0.045219999 0.4747
0.34450001 0.1724 0.2942
0.02189 0.064609997 0.50730002
0.34999999 0.076420002 0.02596
-0.049339999 0.084150001 0.37639999
0.076800004 0.058499999 0.45539999
0.1019 -0.073569998 0.2069
0.044610001 0.052340001 0.34889999
-0.01091 0.058649998 0.25940001
-0.069940001 0.055810001 0.5237
-0.032230001 0.090769999 0.25850001
-0.042660002 -0.1926 0.24950001
0.083140001 0.035549998 0.2922
-0.02674 0.1062 0.50889999
0.1763 -0.3795 0.3274
0.1007 -0.083889998 0.2559
0.089440003 -0.0071359999 0.1357
-0.02076 -0.05542 0.59829998
0.1024 -0.084169999 0.2287
0.44859999 -0.18970001 0.1389
0.099820003 -0.1162 0.1574
-0.060139999 -0.34689999 0.3123
0.06016 -0.34380001 0.3265
-0.01092 -0.34040001 0.3039
0.000466 0.062849998 0.49880001
0.083679996 0.049509998 0.42919999
0.4102 -0.1363 0.2568
0.076099999 0.01981 0.099579997
0.33899999 -0.18179999 0.16940001
-0.077869996 -0.0396 0.53430003
0.2077 0.1508 0.2863
0.022089999 -0.1961 0.2563
-0.035879999 0.077540003 0.2015
0.01095 -0.3351 0.36539999
0.076569997 0.1671 0.2279
0.16249999 -0.29800001 0.32879999
0.082259998 -0.035799999 0.52630001
0.1477 0.1137 0.14650001
0.02177 0.051089998 0.426
0.032809999 0.034869999 0.3547
-0.03985 -0.1664 0.34959999
0.094300002 -0.1127 0.40090001
0.18629999 -0.39489999 0.40509999
0.1758 -0.3409 0.44139999
0.34450001 -0.20190001 0.1128
0.0051589999 -0.17309999 0.34900001
0.091920003 0.0036180001 0.26750001
0.21349999 0.112 0.075340003
0.1611 -0.34940001 0.2969
0.096960001 -0.00116 0.44780001
-0.01459 -0.03266 0.58329999
0.07852 -0.00032600001 0.1034
-0.02778 -0.1397 0.43259999
0.21340001 -0.13249999 0.30059999
0.30129999 -0.1716 0.16140001
0.2735 -0.1362 0.27309999
0.37189999 0.1389 0.2427
0.35550001 -0.1689 0.16429999
0.1744 -0.3935 0.38769999
0.091710001 -0.001499 0.20190001
0.1039 0.1494 0.2823
-0.019680001 0.079109997 0.59670001
0.2516 0.1097 0.071549997
0.037599999 -0.15109999 0.3978
0.3008 0.15449999 0.18009999
0.164 -0.17829999 0.1934
0.082050003 0.106 0.064309999
0.1039 0.1567 0.18799999
0.0054569999 0.062590003 0.35659999
-0.067089997 0.064219996 0.48050001
0.24609999 0.093350001 0.038430002
0.098439999 0.123 0.1824
0.31720001 0.15109999 0.1715
0.01014 0.124 0.4474
-0.0085770003 0.090499997 0.52139997
-0.060150001 0.1219 0.1785
0.06016 0.124 0.18629999
-0.015939999 0.13070001 0.116
0.38280001 -0.1758 0.1846
0.054699998 0.161 0.2009
0.092900001 -0.167 0.23710001
-0.080739997 0.050000001 0.39840001
0.361 0.1023 0.057100002
0.175 0.084370002 0.05649
0.2133 -0.14120001 0.31670001
0.1204 -0.1375 0.2845
0.3883 0.14910001 0.1637
0.26249999 0.1182 0.1645
0.1017 -0.067550004 0.086390004
-0.016960001 0.1004 0.41440001
-0.0053380001 0.083800003 0.58929998
0.2739 0.107 0.1214
0.02189 0.1221 0.097070001
0.02641 -0.211 0.17990001
0.084770001 0.0018429999 0.086779997
-0.081040002 0.01429 0.5406
0.071099997 -0.33809999 0.30689999
0.0070119998 0.073799998 0.2507
-0.036710002 0.1021 0.49039999
-0.047499999 -0.1429 0.4075
-0.047740001 0.082680002 0.48570001
0.1451 0.06464 0.1769
-0.025699999 0.07045 0.30680001
0.17560001 -0.38499999 0.3114
0.049880002 0.088420004 0.46079999
-0.038120002 0.072300002 0.3008
0.28439999 -0.2027 0.1058
-0.063259996 -0.186 0.212
-0.0040509999 0.079889998 0.60189998
0.01396 0.08027 0.59740001
0.345 0.1417 0.1432
0.1481 0.1388 0.1357
0.1804 0.15549999 0.301
0.071110003 -0.1419 0.26769999
0.2899 -0.19499999 0.13500001
-0.0623 -0.1464 0.36669999
-0.043809999 0.063129999 0.38080001
0.1895 -0.37920001 0.3601
-0.0050019999 0.167 0.2279
-0.079319999 0.003027 0.55220002
-0.0051850001 -0.15180001 0.41859999
-0.01102 0.05768 0.1082
-0.016829999 0.075049996 0.19050001
0.2023 -0.1927 0.1476
0.1312 0.1638 0.2131
0.1591 0.1353 0.22920001
0.02125 -0.2026 0.2393
-0.01054 -0.1161 0.49700001
0.2133 0.080140002 -0.002629
0.098959997 -0.13789999 0.28470001
0.0128 0.087439999 0.4804
-0.037810002 0.061009999 0.43340001
0.092040002 0.0099489996 0.28920001
0.039999999 0.075329997 0.1947
0.016869999 0.01857 0.28729999
-0.04228 -0.094889998 0.51300001
-0.02672 -0.2026 0.23379999
0.064479999 -0.06938 0.5255
0.045389999 0.078479998 0.4201
-0.049260002 0.081370004 0.3272
0.4429 -0.1426 0.2994
0.031939998 0.02572 0.64230001
0.1636 0.1196 0.30689999
0.14040001 0.094779998 0.31999999
0.1206 0.069030002 0.33899999
-0.081670001 0.03946 0.48050001
0.18970001 0.1267 0.2227
0.061629999 -0.1719 0.25009999
0.0506 0.058219999 0.28929999
0.025119999 -0.1122 0.495
-0.094269998 -0.07243 0.63620001
0.024940001 0.052689999 0.2978
-0.02689 0.034809999 0.1177
0.06064 0.063519999 0.25760001
-0.055130001 0.041919999 0.15180001
-0.040059999 0.063330002 0.45300001
0.058120001 0.072159998 0.51380002
0.1033 -0.1116 0.092030004
0.075149998 0.05542 0.4659
0.01547 0.1049 0.3822
0.16419999 -0.1382 0.2746
0.18080001 -0.26609999 0.3238
0.06487 -0.1637 0.26440001
0.1842 0.1167 0.20630001
-0.051539999 0.073019996 0.34720001
-0.049210001 0.17219999 0.27250001
0.35010001 -0.1508 0.21170001
0.1531 0.093659997 0.0383
0.3829 -0.1543 0.1988
0.252 0.1081 0.1252
0.32269999 0.141 0.25040001
0.1203 0.09471 0.083959997
0.2023 0.16509999 0.2183
0.051449999 -0.1895 0.2237
0.082759999 -0.1057 0.3987
-0.04665 -0.0022819999 0.63080001
0.031099999 0.085309997 0.29089999
0.01079 -0.082840003 0.55479997
0.1039 -0.01874 0.37090001
0.155 0.1105 0.31259999
0.41589999 -0.1673 0.1645
-0.054680001 -0.3134 0.3466
-0.0328 0.1433 0.14740001
-0.01093 0.141 0.25040001
0.081579998 -0.30509999 0.40709999
3.0000001e-06 0.1208 0.093699999
-0.0054560001 -0.34689999 0.3123
0.019619999 -0.019379999 0.1051
0.092990004 0.1533 0.1751
0.3062 -0.1472 0.29370001
0.45930001 -0.1812 0.1626
0.1038 -0.16329999 0.24969999
0.26789999 -0.1752 0.1953
0.27340001 0.14569999 0.1551
0.18870001 -0.36309999 0.31639999
0.42109999 0.1206 0.1733
0.14219999 -0.3055 0.37149999
0.27340001 0.1504 0.2863
0.29530001 0.1093 0.12970001
0.1094 -0.3353 0.30970001
0.24609999 0.17200001 0.2942
0.32859999 0.079329997 0.03954
0.40470001 0.14470001 0.26449999
0.093970001 -0.088990003 0.38170001
-0.041870002 0.016759999 0.27000001
0.38330001 -0.1375 0.3152
0.071950004 0.037530001 0.1675
-0.070969999 0.03943 0.17640001
0.44299999 -0.182 0.1337
0.1505 -0.27669999 0.29350001
0.44839999 -0.1477 0.27739999
0.19599999 -0.33039999 0.338
0.16760001 0.16419999 0.58649999
0.079230003 0.05398 0.3818
0.16949999 0.07553 0.0207
0.33360001 0.15549999 0.1842
0.2297 0.1516 0.17129999
0.1987 -0.32969999 0.3822
0.37729999 -0.1869 0.1517
0.093209997 -0.052280001 0.4666
0.1488 -0.25139999 0.38440001
0.1477 -0.34689999 0.3123
0.084109999 0.02383 0.52329999
-0.02018 0.1057 0.50040001
0.19679999 -0.15809999 0.2608
0.021749999 0.048700001 0.098970003
-0.063340001 -0.1201 0.4355
0.093099996 -0.1344 0.3105
0.087070003 0.039239999 0.38370001
0.2789 0.1149 0.1515
0.31720001 0.096089996 0.087789997
0.1893 0.1314 0.25009999
0.30630001 -0.1541 0.204
0.14470001 -0.25209999 0.36849999
6.4e-05 0.064719997 0.13
0.2406 -0.19220001 0.1462
0.16949999 0.1582 0.1919
-0.034540001 0.087439999 0.49430001
0.1804 -0.182 0.1806
0.09307 -0.024900001 0.4878
0.37189999 0.1568 0.18799999
1.1e-05 0.1504 0.1675
-0.02461 0.051440001 0.3964
0.070320003 0.052019998 0.2473
0.28979999 -0.1587 0.25
-0.075960003 0.02303 0.55229998
0.421 -0.1945 0.1275
0.01805 0.097719997 0.50940001
0.092100002 -0.081579998 0.40400001
-0.065090001 -0.1621 0.2438
-0.049699999 0.052409999 0.3655
-0.028030001 -0.083460003 0.54409999
0.1206 -0.18359999 0.1462
0.1433 0.081370004 0.2579
-0.01051 0.062350001 0.495
0.1812 -0.40740001 0.37419999
-0.044810001 0.085150003 0.46399999
0.031160001 -0.14839999 0.41339999
0.0051899999 -0.21340001 0.2009
0.052370001 0.06707 0.2349
-0.0052479999 0.0845 0.53659999
0.042619999 0.048719998 0.09172
0.022019999 0.05796 0.1904
0.2242 0.074759997 0.01534
0.060710002 0.065499999 0.33230001
0.0084140003 0.1079 0.3712
0.0054810001 0.1494 0.2823
-0.084020004 -0.046440002 0.49700001
-0.069899999 -0.05297 0.53579998
0.0051429998 -0.1855 0.3154
0.36090001 0.1621 0.30430001
0.2242 0.1567 0.1881
-0.05178 0.066330001 0.55720001
0.092799999 0.040229999 0.36539999
0.093529999 -0.1679 0.16859999
-0.093429998 -0.051270001 0.64289999
0.018719999 0.1198 0.51099998
0.07384 0.070610002 0.61299998
-0.06707 -0.1683 0.27379999
-0.0052519999 -0.003216 0.64899999
0.074979998 -0.18700001 0.12970001
0.099799998 0.006844 0.3924
0.027349999 0.02114 0.29949999
0.1742 0.1802 0.57730001
0.091049999 -0.061870001 0.46349999
0.094209999 0.023010001 0.34850001
0.06893 -0.1313 0.382
0.08207 -0.092490003 0.44409999
0.05906 0.088830002 0.45280001
0.02736 0.13680001 0.13160001
-0.054839998 0.074989997 0.3707
0.01531 0.046950001 0.1087
0.03768 -0.058990002 0.57279998
0.086860001 -0.16429999 0.1086
0.022159999 0.037769999 0.1045
0.02046 0.085960001 0.36860001
0.02778 0.06318 0.49900001
0.2406 -0.20370001 0.1147
0.041870002 0.06718 0.34200001
-0.070739999 -0.1118 0.43669999
0.075520001 -0.088299997 0.47029999
0.175 0.14669999 0.27219999
-0.001221 0.028510001 0.26789999
0.07209 -0.08106 0.49599999
-0.01871 -0.1559 0.40169999
0.08743 -0.1717 0.19679999
0.26800001 -0.1303 0.31020001
0.1 -0.01877 0.4526
-0.042959999 0.089450002 0.43650001
0.20110001 -0.32780001 0.3572
-0.043979999 0.05384 0.26719999
-0.01071 0.094559997 0.33340001
-0.023530001 0.06786 0.26300001
0.076569997 -0.3477 0.30840001
-0.070780002 -0.17659999 0.193
0.1371 -0.1953 0.14470001
-0.079329997 0.0086340001 0.56160003
0.051589999 -0.146 0.38299999
0.074770004 0.037330002 0.2075
0.08918 0.0034080001 0.50239998
0.0113 -0.1803 0.32260001
0.079899997 0.040630002 0.51310003
0.2789 0.15369999 0.29809999
-0.059700001 0.067620002 0.25650001
-0.070940003 0.01983 0.56889999
0.1108 -0.1964 0.1943
-0.076559998 -0.31020001 0.35510001
0.066090003 -0.3026 0.3955
-0.001706 0.03796 0.6505
0.01464 -0.0047070002 0.1035
0.1156 -0.1637 0.40169999
0.062279999 0.05435 0.1998
-0.0116 0.058320001 0.63380003
0.099760003 -0.133 0.39570001
0.30630001 0.084579997 0.01433
0.175 0.093350001 0.038430002
0.34999999 0.1365 0.23360001
0.42660001 -0.13 0.28380001
0.4429 -0.1972 0.1187
0.38280001 0.097439997 0.091619998
0.2789 0.15809999 0.1919
0.1094 0.1349 0.1279
-0.01639 0.1459 0.1551
0.3335 -0.15090001 0.2755
0.017790001 0.064560004 0.48199999
0.2516 0.12 0.093620002
0.30630001 0.1024 0.057020001
0.1203 0.13779999 0.2387
0.1094 -0.3123 0.35069999
0.049229998 0.1436 0.26050001
0.05869 0.1021 0.50089997
0.065760002 0.1908 0.2773
0.27919999 -0.1842 0.1666
0.086790003 -0.1664 0.13079999
-0.052960001 -0.1954 0.2071
-0.04301 -0.1274 0.4515
0.1531 -0.3486 0.3044
0.32269999 0.1494 0.2823
0.076559998 0.1584 0.19149999
0.3008 0.1504 0.2863
0.27379999 -0.1434 0.24160001
0.043099999 -0.2041 0.17739999
0.090970002 0.04792 0.35980001
0.1485 0.1647 0.57969999
0.14219999 -0.3222 0.32879999
-0.071220003 -0.1833 0.18539999
0.082039997 0.1193 0.1683
0.1969 0.087099999 0.063960001
0.1153 0.16060001 0.20100001
0.064769998 0.061980002 0.5158
-0.049479999 -0.1767 0.29750001
0.05483 0.05215 0.1543
0.1892 -0.33039999 0.43700001
0.036839999 -0.18960001 0.2595
-0.039790001 -0.17730001 0.3141
0.1136 -0.1903 0.1543
0.35010001 -0.1936 0.1176
-0.03097 -0.15530001 0.38690001
-0.02342 0.092 0.38550001
-0.0052100001 -0.050639998 0.61159998
0.1206 -0.222 0.21699999
0.3804 -0.1664 0.21520001
-0.0219 0.033739999 0.35929999
0.01677 0.058370002 0.096510001
0.18610001 0.1153 0.082549997
0.082099997 0.02393 0.20469999
-0.042629998 0.066799998 0.3285
0.1045 -0.070830002 0.1107
-0.037919998 0.071039997 0.433
0.4052 0.167 0.2279
0.1013 -0.067400001 0.35980001
0.037149999 0.082900003 0.2238
0.090230003 0.04448 0.3493
0.1743 -0.39989999 0.37799999
0.089040004 0.0091150003 0.2287
-0.026590001 0.093440004 0.40360001
-0.078220002 0.052790001 0.41479999
-0.064719997 -0.1268 0.4172
0.030060001 -0.21439999 0.15260001
0.047649998 0.054919999 0.13689999
0.038279999 -0.01397 0.1052
0.26840001 0.1609 0.2009
0.01554 0.037069999 0.1202
-0.07119 0.063660003 0.46380001
0.070969999 0.025289999 0.093900003
0.032820001 0.1365 0.23360001
-0.040380001 0.083870001 0.38929999
0.01456 0.03568 0.098300003
0.016480001 -0.16689999 0.36399999
0.005479 -0.3405 0.30410001
0.2078 0.1172 0.16060001
0.016410001 0.04188 0.26350001
-0.038690001 0.091629997 0.46110001
0.092759997 -0.1247 0.21520001
0.3062 -0.14309999 0.31020001
0.08715 0.01195 0.51069999
0.1911 -0.36939999 0.38440001
0.1211 -0.21430001 0.2314
0.06191 0.070550002 0.5054
0.079599999 0.029580001 0.53469998
0.18089999 -0.25330001 0.36559999
-0.055410001 -0.18279999 0.2568
0.043639999 0.073100001 0.50220001
-0.026699999 -0.1751 0.33739999
0.1752 -0.3876 0.39610001
-0.067759998 0.066019997 0.30000001
0.04205 -0.1398 0.41819999
-0.087779999 0.003272 0.52590001
0.083099999 -0.079020001 0.4594
-0.02946 -0.1288 0.46169999
-0.02015 0.069470003 0.3978
0.037190001 -0.20029999 0.2228
0.033209998 0.02517 0.30860001
-0.02867 -0.051109999 0.6002
0.01174 0.073129997 0.2
0.089699998 0.034309998 0.3328
-0.009993 0.058150001 0.3777
0.2079 -0.19499999 0.1407
0.092979997 0.096089996 0.087789997
0.098140001 -0.047940001 0.073870003
0.09544 0.01316 0.45789999
0.05243 -0.019379999 0.1051
0.089510001 -0.13420001 0.21789999
-0.0052880002 -0.028279999 0.63489997
-0.08563 0.019069999 0.5237
0.1193 0.069049999 0.34799999
-0.066409998 0.02995 0.5995
0.065800004 -0.1937 0.1522
-0.019920001 0.06346 0.40970001
-0.057009999 -0.053470001 0.55839998
0.076410003 0.036449999 0.1926
0.038210001 0.06233 0.61159998
0.0028919999 0.071010001 0.35479999
0.084540002 0.1066 0.58380002
0.072760001 0.02423 0.58279997
-0.08286 -0.0306 0.52319998
0.29030001 -0.1443 0.2374
0.19329999 -0.33570001 0.40279999
0.061650001 0.075470001 0.45100001
0.115 -0.20290001 0.2129
-0.059280001 0.05971 0.20649999
0.076569997 -0.34959999 0.29969999
0.049509998 0.066370003 0.2859
0.098010004 -0.031640001 0.17479999
-0.025110001 0.078850001 0.53579998
0.066689998 -0.062639996 0.53079998
-0.044 0.080329999 0.26710001
0.17990001 0.14040001 0.25909999
-0.062109999 -0.18449999 0.2247
-0.0328 -0.3486 0.3044
0.2899 -0.1864 0.133
-0.01085 0.04157 0.3436
0.043740001 0.075999998 0.2227
-0.039790001 -0.1162 0.47549999
-0.02228 -0.056139998 0.58410001
0.1236 -0.1972 0.3804
0.1304 0.064580001 0.2339
0.030169999 0.078100003 0.37979999
0.09268 -0.16060001 0.1539
0.070979998 0.051690001 0.27059999
0.068680003 0.035330001 0.58920002
0.044950001 0.084040001 0.58289999
0.03932 0.021880001 0.28549999
-0.03537 0.1135 0.50389999
-0.053210001 -0.038699999 0.5794
0.37180001 -0.14820001 0.28299999
-0.0328 0.017729999 0.2784
-0.00182 0.1205 0.47530001
-0.01279 0.074709997 0.405
0.08873 0.034499999 0.3211
0.073190004 -0.13590001 0.36000001
0.01636 0.081 0.4562
0.054110002 0.04352 0.1365
-0.061250001 -0.16159999 0.31990001
-0.074519999 0.057020001 0.4862
0.1548 0.1007 0.26660001
0.1912 0.20479999 0.56800002
-0.057909999 -0.1293 0.4251
0.1248 0.074490003 0.3339
0.1636 -0.30509999 0.40709999
0.048930001 -0.1759 0.29350001
0.02385 -0.085409999 0.5467
-0.079340003 -0.074510001 0.4756
0.070730001 0.070289999 0.30050001
-0.09296 -0.32910001 0.39250001
0.1532 -0.26280001 0.3795
0.16949999 0.1236 0.101
-0.080020003 -0.1245 0.36059999
0.094789997 0.02361 0.39820001
0.033569999 -0.1692 0.33849999
0.091289997 0.02651 0.42570001
-0.0228 -0.2001 0.24079999
-0.01884 0.078989998 0.24529999
0.098980002 -0.1223 0.1139
-0.05934 -0.1823 0.2333
-0.033429999 0.064920001 0.31600001
0.080799997 -0.1016 0.4206
0.044610001 -0.1839 0.2744
0.1373 -0.22409999 0.38029999
0.051350001 -0.1786 0.2676
0.06146 0.06504 0.5327
0.104 -0.1424 0.2624
0.0072980002 0.093489997 0.36469999
-0.057950001 0.076990001 0.34369999
0.0049490002 -0.03858 0.62589997
0.062290002 0.1015 0.45190001
-0.0056420001 -0.092569999 0.53659999
0.1367 -0.308 0.36309999
-4.8000002e-05 -0.1062 0.51230001
0.454 -0.1364 0.25130001
-0.04242 -0.18279999 0.27990001
0.1751 -0.198 0.1174
-0.053350002 0.077409998 0.29969999
0.056049999 -0.1944 0.1953
0.083169997 0.01657 0.1561
0.1123 0.1348 0.58399999
0.077030003 -0.3026 0.3955
0.049180001 0.030169999 0.096129999
0.03201 0.072760001 0.6002
0.1893 -0.33579999 0.31130001
0.16419999 -0.14910001 0.30000001
0.087870002 -0.017419999 0.52139997
-0.04989 0.07621 0.3784
0.1367 0.090559997 0.030719999
0.30630001 0.092079997 0.034540001
0.076569997 -0.31850001 0.41119999
-0.059969999 -0.1166 0.4501
-0.042970002 -0.085089996 0.53030002
0.098480001 -0.07265 0.28920001
0.42120001 -0.184 0.15710001
0.076219998 0.03105 0.16500001
0.2017 0.22939999 0.55549997
0.088140003 -0.1129 0.31099999
-0.073229998 0.04947 0.2289
0.12620001 -0.22579999 0.2471
0.1829 -0.40220001 0.3942
-0.088420004 -0.02894 0.50770003
0.2406 0.1079 0.067910001
0.061579999 0.074639998 0.31560001
0.1917 0.22750001 0.55309999
0.30070001 -0.1785 0.1824
0.35550001 0.14560001 0.1552
-0.01116 0.074280001 0.21250001
0.36090001 0.1399 0.2465
0.1001 -0.051520001 0.278
-0.01258 0.056150001 0.47830001
0.022460001 0.041960001 0.39899999
0.1067 -0.1552 0.21699999
0.02736 0.063390002 0.56309998
0.081840001 0.047800001 0.31259999
-0.0528 0.02502 0.16249999
-0.000114 -0.15270001 0.4102
0.15530001 0.097599998 0.25470001
0.021880001 -0.32049999 0.33239999
0.01422 0.093759999 0.4966
0.1147 -0.2088 0.2247
0.18099999 -0.40810001 0.36000001
0.048300002 -0.05517 0.56669998
-0.04792 0.017790001 0.15180001
-0.020540001 -0.34920001 0.30019999
0.094460003 -0.072070003 0.41940001
0.26249999 0.1504 0.2863
0.02737 0.02909 0.33719999
0.088059999 -0.1376 0.25940001
0.0054759998 0.14470001 0.26449999
0.032710001 0.1147 0.51270002
0.092189997 0.02241 0.44400001
0.085029997 -0.1075 0.3768
0.050530002 -0.204 0.1655
-0.0093299998 0.074749999 0.28479999
4e-06 -0.31850001 0.41119999
0.070289999 0.035670001 0.1489
-0.022089999 0.1139 0.45739999
0.1367 -0.31490001 0.34290001
0.01606 0.09685 0.345
0.148 0.091339998 0.26089999
0.043760002 -0.3477 0.30840001
0.1013 -0.0625 0.23980001
-0.01963 -0.17730001 0.32929999
0.071079999 0.04634 0.2375
0.092639998 -0.092689998 0.3603
-0.004129 0.098760001 0.33250001
-0.051419999 -0.034120001 0.61309999
-0.01956 -0.1824 0.31279999
0.082160003 0.01184 0.53820002
0.043850001 -0.2087 0.1626
0.07666 0.17290001 0.28349999
-0.05077 -0.1832 0.26800001
0.1795 0.1303 0.27219999
0.37200001 -0.19320001 0.1175
-0.04022 -0.04724 0.59560001
-0.015830001 0.073090002 0.4138
0.07525 0.092050001 0.59109998
0.0083569996 -0.2155 0.1769
0.098459996 0.1709 0.25619999
0.087789997 -0.1123 0.35699999
0.1071 0.027039999 0.19400001
0.43200001 0.1726 0.28349999
0.1768 -0.36320001 0.37090001
0.098109998 0.006331 0.3849
0.092600003 -0.09612 0.37059999
0.1556 0.15700001 0.58990002
-0.031599998 -0.1961 0.25529999
0.1024 -0.0080660004 0.34909999
0.1041 -0.067929998 0.14669999
-0.05407 -0.17739999 0.27180001
-0.054680001 0.1206 0.1733
-0.04496 0.0612 0.60479999
-0.0056980001 0.074270003 0.20119999
-0.02733 0.171 0.25619999
0.08145 -0.01243 0.53829998
0.1012 -0.061900001 0.38170001
0.29530001 0.07553 0.0207
0.07316 0.07474 0.60659999
-0.044500001 0.043749999 0.38780001
-0.071079999 -0.3452 0.29859999
0.1094 0.1723 0.2834
-0.04795 0.068779998 0.28889999
-0.081639998 -0.1323 0.32089999
0.26249999 0.1648 0.2184
0.43200001 0.148 0.27720001
0.027349999 -0.32910001 0.39250001
-0.065619998 -0.33399999 0.3705
0.040270001 0.049059998 0.62449998
0.06177 0.077739999 0.60399997
0.071099997 0.1321 0.21690001
0.2022 0.20909999 0.57139999
0.1015 -0.05201 0.081239998
0.078369997 0.02211 0.13410001
0.25150001 -0.13789999 0.3175
0.096220002 -0.083609998 0.37619999
-0.034699999 -0.134 0.4452
0.1583 -0.29170001 0.3389
0.1477 -0.33289999 0.3757
0.071110003 0.1656 0.2182
0.1586 0.081569999 0.047669999
0.257 0.081569999 0.047669999
-0.067749999 -0.14120001 0.36680001
0.2242 -0.1648 0.23379999
0.24609999 0.1093 0.12970001
0.12729999 0.1485 0.58130002
0.005477 0.1029 0.1081
-0.001733 0.063790001 0.62889999
0.43200001 -0.1957 0.1235
0.29530001 -0.14030001 0.2509
0.41010001 -0.18449999 0.15629999
0.2516 0.1029 0.1081
-0.054680001 0.1433 0.14740001
0.01094 0.149 0.1637
0.0051259999 0.019610001 0.65380001
-0.01176 0.096510001 0.47279999
0.081519999 -0.1752 0.1146
0.062689997 -0.2018 0.1247
0.252 0.1301 0.1163
0.096780002 0.01369 0.43650001
-0.049430002 0.02004 0.27320001
0.18780001 0.1104 0.1573
0.066610001 0.02571 0.084210001
0.17 0.13429999 0.2254
0.06061 -0.041390002 0.5668
-0.065119997 0.068149999 0.45289999
-0.04998 -0.046239998 0.58099997
-0.07485 0.003304 0.5783
0.08647 -0.1042 0.3926
0.091109999 0.02978 0.32730001
0.081119999 0.052639998 0.449
0.0056110001 -0.030029999 0.63370001
-0.01702 -0.1696 0.3556
0.063019998 -0.1444 0.29980001
-0.04569 0.085620001 0.43099999
0.00052100001 0.1057 0.36680001
-0.02018 0.1022 0.42559999
0.1031 -0.080339998 0.09341
0.4323 -0.15790001 0.18610001
0.19589999 -0.34670001 0.3872
-0.073080003 -0.1319 0.3766
-0.02 -0.062600002 0.57929999
0.1605 -0.30880001 0.33860001
0.16949999 0.092419997 0.1444
0.086319998 -0.13070001 0.2615
0.08123 0.080200002 0.60640001
0.045060001 0.031720001 0.34279999
0.09465 -0.1705 0.14830001
0.32269999 0.17110001 0.29859999
0.093879998 -0.094970003 0.31099999
0.1698 -0.1388 0.2703
0.38280001 -0.1691 0.206
0.17739999 0.1786 0.58340001
0.4813 -0.1267 0.29550001
0.01212 0.1078 0.36520001
-0.076559998 -0.32139999 0.41049999
0.005566 -0.1892 0.2949
0.1127 -0.17039999 0.398
0.036990002 0.074320003 0.35139999
0.070919998 -0.1444 0.33809999
0.34450001 0.080140002 -0.002635
-0.019300001 0.058219999 0.1118
-0.04366 0.088310003 0.44729999
0.2789 0.15459999 0.18000001
0.081299998 -0.093089998 0.43720001
0.26249999 0.15549999 0.1842
0.3664 0.1525 0.294
0.1157 0.14489999 0.5776
-0.056910001 -0.19 0.2192
0.060169999 -0.01318 0.1036
0.1696 0.18260001 0.57270002
0.065289997 0.063790001 0.61210001
-0.056419998 -0.1591 0.3326
-0.071230002 -0.13869999 0.35389999
0.2079 -0.1618 0.18970001
0.21340001 -0.204 0.1068
0.2024 -0.15090001 0.2225
0.19329999 0.12720001 0.20640001
0.4375 0.1321 0.21690001
0.28439999 0.090400003 0.072520003
0.38280001 0.1354 0.1277
0.1969 0.1165 0.086230002
0.1192 -0.2216 0.2376
0.34459999 -0.169 0.16429999
0.003759 0.092090003 0.30689999
0.1314 -0.1664 0.2359
0.12620001 0.1353 0.22920001
0.065629996 0.1432 0.14740001
0.087439999 -0.094889998 0.42129999
0.18089999 0.078419998 0.03568
-0.008138 0.06718 0.40110001
0.2789 0.1117 0.13869999
0.098449998 0.13680001 0.13160001
0.076559998 0.162 0.20479999
0.2078 -0.1912 0.1513
0.3008 0.1488 0.1638
0.42649999 -0.193 0.1312
-0.018580001 -0.1224 0.48289999
0.2242 0.1504 0.2863
-0.054680001 0.124 0.18629999
-0.043740001 0.14669999 0.27219999
0.1476 -0.1815 0.1846
-0.02929 -0.1882 0.28960001
0.1313 0.1024 0.057020001
0.022329999 0.01939 0.29120001
-0.076640002 -0.01146 0.55140001
