# .PCD v0.7 - Point Cloud Data file format
VERSION 0.7
FIELDS x y z
SIZE 4 4 4
TYPE F F F
COUNT 1 1 1
WIDTH 1495
HEIGHT 1
VIEWPOINT 0 0 0 1 0 0 0
POINTS 1495
DATA ascii
-0.0211 -0.21780001 0.1626
0.1035 -0.1116 0.037349999
0.095339999 -0.16 -0.01189
0.02672 -0.2411 0.0097000003
0.032099999 -0.035879999 -0.2075
0.021910001 -0.2581 -0.1209
-0.077090003 -0.1988 -0.2622
-0.07993 -0.2005 -0.1048
-0.031429999 -0.25060001 -0.083389997
-0.085160002 -0.1837 -0.1432
-0.035330001 -0.25490001 -0.1415
-0.16769999 -0.2119 0.1045
-0.06481 -0.1138 -0.32429999
0.077890001 -0.02022 -0.034019999
-0.092969999 0.1136 0.078659996
-0.066140004 -0.23289999 -0.2111
0.091370001 -0.077299997 -0.078199998
0.093309999 -0.032760002 0.03582
-0.053459998 0.0261 0.045790002
0.049079999 -0.0198 -0.1301
-0.032170001 -0.2386 -0.0042559998
0.070409998 -0.1105 -0.29960001
0.078780003 -0.2087 -0.1759
0.062760003 -0.1186 -0.35569999
-0.076169997 -0.02963 -0.058820002
-0.084179997 -0.023399999 0.0097209997
0.01668 -0.27219999 -0.35089999
0.068010002 -0.2219 -0.31830001
0.037209999 -0.2221 0.1026
-0.020959999 -0.27079999 -0.3436
0.09307 -0.1226 -0.1267
-0.079630002 -0.1069 -0.2357
0.084619999 -0.17829999 0.048409998
-0.089529999 -0.1639 0.13770001
-0.1013 -0.05663 0.1193
0.062180001 -0.2286 -0.061280001
0.066610001 -0.21619999 -0.017100001
-0.065789998 -0.2282 -0.3592
0.034109998 -0.2649 -0.2633
0.051339999 -0.24439999 -0.1269
-0.052809998 0.038559999 0.07621
-0.1032 -0.089840002 0.031909999
0.081780002 -0.092019998 -0.1802
0.04064 -0.088950001 -0.035580002
0.045940001 -0.25639999 -0.3231
0.073239997 -0.1344 -0.3285
-0.079640001 -0.1952 0.0047180001
-0.069789998 0.0061960001 -0.0057549998
-0.01991 -0.01977 -0.16320001
-0.090530001 -0.1503 -0.15970001
-0.055259999 -0.2277 -0.026149999
-0.0054580001 -0.084320001 0.0115
-0.097159997 -0.13339999 -0.099299997
-0.021159999 -0.001637 -0.1149
-0.066229999 -0.1944 0.1481
-0.078730002 -0.1719 -0.32870001
0.07536 -0.18260001 -0.3617
0.041019998 -0.2559 -0.18700001
0.09821 -0.139 -0.066590004
0.07096 -0.045150001 -0.1383
-0.082000002 0.0012769999 0.075139999
-0.074479997 -0.191 0.084890001
-0.07079 -0.14489999 -0.3434
0.067670003 -0.22759999 -0.2032
-0.0053969999 -0.26949999 -0.2198
0.031230001 -0.081890002 -0.34439999
-0.1049 -0.083719999 0.1046
0.081309997 -0.1969 -0.082910001
-0.066710003 0.1052 0.064439997
-0.068790004 -0.2228 -0.28
-0.01076 -0.2525 -0.055799998
-0.017270001 -0.07581 -0.3355
0.02086 -0.25080001 -0.056030001
-0.033720002 -0.01853 -0.052719999
0.000119 -0.037969999 -0.2351
0.090630002 -0.094640002 -0.1162
0.0418 -0.22669999 0.045779999
0.021539999 -0.266 -0.23630001
0.082939997 -0.0054529998 0.04135
0.067639999 -0.2013 0.097230002
0.059950002 -0.0082050003 -0.066950001
0.015699999 -0.02225 -0.1802
-0.1002 -0.1329 0.0099950004
-0.023329999 -0.053860001 -0.26449999
0.01056 -0.27379999 -0.29089999
-0.083329998 -0.18709999 0.032540001
-0.070479997 -0.1776 -0.38640001
0.067699999 -0.1605 -0.38960001
0.036479998 0.025319999 0.057980001
-0.064779997 -0.036499999 -0.1275
0.031490002 -0.2289 0.075110003
-0.13779999 0.080190003 -0.002232
-0.060150001 0.1044 0.113
-0.093029998 -0.05353 -0.019850001
0.067809999 -0.2226 -0.099270001
-0.093900003 -0.025 0.075900003
0.04425 -0.02193 -0.04434
0.1014 -0.1278 0.0045369999
0.05965 -0.075879999 -0.01881
-0.054310001 -0.23639999 -0.074220002
-0.074989997 -0.2123 -0.1875
0.1176 0.076339997 0.01801
-0.04087 -0.25 -0.1142
-0.024739999 -0.2271 0.098820001
-4.9999999e-05 0.062419999 0.088129997
0.08168 -0.19670001 -0.1486
0.081309997 0.084660001 0.05243
-0.06645 -0.089419998 -0.26140001
0.044050001 -0.1001 -0.36449999
-0.089659996 -0.1393 -0.20299999
-0.03162 -0.099430002 -0.39399999
-0.071259998 -0.19419999 0.1121
0.051059999 -0.039299998 -0.1825
0.089659996 -0.16590001 -0.19760001
0.16410001 0.078659996 -0.01108
0.081689999 -0.1777 -0.2911
0.03125 -0.046050001 -0.23280001
-0.086669996 -0.1663 -0.2306
-0.045979999 -0.25619999 -0.3612
0.066189997 0.01498 0.016559999
-0.076739997 -0.037810002 -0.090729997
-0.098719999 -0.063680001 0.037190001
-0.096519999 -0.1494 0.037300002
-0.069250003 0.034589998 0.12549999
-0.01057 -0.26269999 -0.1488
-0.033410002 -0.25560001 -0.17030001
-0.04022 -0.088660002 -0.3409
0.023709999 -0.0025599999 -0.1161
-0.084449999 -0.09082 -0.17
-0.0198 -0.2701 -0.29949999
-0.087439999 -0.078610003 -0.1234
0.01384 -0.2647 -0.2005
0.093730003 -0.047189999 -0.001226
0.055009998 -0.083760001 -0.29969999
-0.083449997 -0.183 -0.2034
-0.02334 -0.064570002 -0.04984
-0.026550001 -0.26820001 -0.26899999
-0.064499997 -0.097460002 -0.28600001
-0.03218 -0.23649999 0.025490001
-0.000147 -0.0083710002 -0.063830003
0.067249998 -0.031709999 -0.1161
0.065700002 -0.2308 -0.27419999
-0.16410001 0.083760001 0.01029
-0.069090001 -0.057459999 0.0090960003
0.03201 -0.25749999 -0.1542
-0.056930002 -0.24429999 -0.3114
-0.043329999 -0.02888 -0.16
-0.05178 -0.066339999 -0.031020001
0.090269998 -0.1673 0.01557
0.087339997 -0.13860001 -0.2246
0.093139999 -0.1542 0.05384
0.043760002 -0.087099999 -0.001554
0.069059998 -0.22390001 -0.1485
-0.033879999 0.05847 0.1009
-0.079070002 -0.02045 -0.027720001
-0.064369999 -0.016960001 0.1044
-0.02187 0.0081359996 0.1009
-0.030990001 -0.034189999 -0.19580001
-0.03115 -0.26120001 -0.1981
-0.06876 -0.2189 -0.044890001
-0.061269999 -0.061779998 -0.2096
-0.086039998 -0.15809999 0.16140001
-0.055819999 -0.019200001 -0.1125
-0.044199999 -0.25510001 -0.25049999
-0.095770001 -0.09031 -0.077270001
0.075570002 -0.19400001 -0.34040001
0.07542 -0.2163 -0.2251
-0.1005 -0.079300001 0.0047459998
-0.090159997 -0.17640001 -0.088409998
0.055399999 -0.040989999 -0.028349999
0.1034 -0.089840002 0.02644
0.0084619997 -0.05686 -0.28479999
0.09764 -0.05463 0.044429999
0.02258 -0.03039 -0.055160001
0.082170002 -0.1609 -0.27430001
-0.08202 -0.073090002 -0.15090001
0.087300003 -0.0964 -0.148
-0.073459998 -0.2193 -0.24150001
-2.9000001e-05 -0.2218 0.14129999
0.070610002 -0.060679998 0.01627
-0.086900003 -0.01464 0.042750001
0.02187 -0.082369998 0.01078
-0.036589999 -0.095909998 -0.36840001
-0.060029998 -0.24339999 -0.2872
0.076629996 -0.091420002 -0.21340001
0.088370003 -0.1763 -0.033709999
-0.037020002 -0.066469997 -0.2902
0.084519997 -0.189 -0.1267
-0.076180004 -0.13259999 -0.29159999
-0.0054569999 -0.089809999 -0.024350001
-0.063539997 -0.01009 -0.060830001
-0.095710002 -0.1436 0.1083
-0.02619 -0.24330001 -0.026210001
-0.064539999 -0.1327 -0.36289999
-0.083810002 -0.039960001 -0.039489999
-0.077519998 -0.1829 -0.30720001
-0.070710003 -0.1822 0.1758
0.092320003 -0.1391 -0.1759
0.092830002 -0.13860001 -0.1429
0.075669996 -0.1992 0.048009999
-0.037420001 0.044229999 0.060490001
0.08027 -0.1841 -0.2694
0.092770003 -0.16580001 -0.1046
-0.0097449999 0.01439 -0.06724
-0.041730002 -0.2622 -0.31819999
0.2167 0.074349999 -0.01176
-0.064499997 -0.06402 -0.01252
0.092979997 -0.1684 -0.05517
-0.095590003 -0.1393 -0.077600002
0.052999999 -0.1155 -0.37819999
-0.0902 -0.1168 -0.1489
-0.07265 -0.20829999 -0.3396
0.061420001 -0.2221 0.0041689998
-0.060970001 -0.2106 0.07694
-0.092660002 -0.1425 0.1435
-0.053470001 -0.1159 -0.3788
0.06521 -0.045839999 -0.15989999
0.020880001 -0.27070001 -0.329
0.071170002 -0.22 -0.25260001
0.1656 0.074199997 0.01074
0.093419999 -0.058090001 -0.02857
-0.062990002 -0.235 -0.1525
0.065800004 -0.2342 -0.29620001
-0.05469 0.01856 0.098499998
0.01033 -0.27219999 -0.26370001
0.061500002 -0.078479998 -0.2552
-0.078380004 -0.1816 0.13070001
-0.09826 -0.14049999 0.05734
-0.01998 -0.039179999 -0.2233
-0.1859 0.077679999 -0.0092209997
-0.071220003 -0.2096 -0.0095950002
-0.087719999 -0.1604 -0.1973
-0.047680002 -0.2207 0.060649998
-0.054680001 0.1238 0.1008
0.0228 -0.063150004 -0.047959998
0.02812 -0.242 -0.01736
0.031479999 -0.2676 -0.29089999
0.079570003 -0.041760001 -0.088040002
0.077430002 -0.1609 -0.31819999
-0.032820001 0.1204 0.093400002
0.040600002 -0.2441 -0.0614
-0.054110002 -0.23729999 -0.1031
-0.095660001 -0.07942 -0.055380002
-0.084339999 0.0041140001 0.1137
0.07502 -0.16590001 -0.34060001
0.075410001 -0.026319999 -0.05432
0.045630001 0.0070830001 -0.062899999
0.065310001 -0.084250003 0.01153
-0.04727 -0.048840001 -0.219
0.043439999 -0.2331 -0.00062100001
0.01031 -0.083889998 -0.37020001
0.02125 -0.0087959999 -0.1362
-0.071950004 -0.21529999 -0.091959998
0.047150001 -0.004224 -0.086800002
-0.1039 0.1024 0.057020001
-0.076559998 0.1004 0.1004
-0.062399998 0.01808 0.02578
-0.0052919998 -0.2465 -0.001168
0.073239997 -0.2112 -0.05556
-0.076180004 -0.071719997 -0.1715
-0.070809998 0.01197 0.050530002
-4.7000001e-05 -0.01411 -0.1605
0.071319997 -0.023250001 -0.075680003
-0.079960003 -0.2005 -0.1322
-0.099409997 -0.1227 0.070150003
-0.02733 -0.01792 0.1055
0.084229998 -0.039779998 -0.03954
-0.1203 0.083099999 0.0526
0.039439999 -0.064429998 -0.2744
-0.047830001 -0.2534 -0.27059999
-0.039779998 -0.0084530003 -0.1057
-0.067319997 -0.05813 -0.1865
-0.063369997 -0.1209 -0.34630001
0.01613 -0.063170001 -0.30599999
-0.09285 -0.1592 -0.042300001
0.0288 -0.25369999 -0.09922
0.07835 -0.1886 0.064999998
-0.051399998 -0.2445 -0.1305
-0.065700002 0.023639999 0.072219998
-0.08303 -0.1224 -0.2198
0.0141 -0.035319999 -0.2163
-0.05088 -0.2272 0.022260001
0.0328 -0.26620001 -0.3673
-0.021090001 -0.26800001 -0.23630001
-0.09843 -0.1071 -0.04527
-0.0154 0.051849999 0.097549997
0.015930001 -0.226 0.119
-0.08884 -0.1802 -0.0429
0.05672 -0.24330001 -0.34560001
0.054030001 -0.030920001 -0.15109999
0.044799998 0.039019998 0.075920001
-0.028860001 -0.072269998 -0.31990001
-0.072109997 -0.1199 -0.30700001
-0.02733 0.02922 0.099320002
0.084519997 -0.017750001 0.02609
-0.056159999 -0.096610002 -0.3283
0.07457 -0.1049 -0.25310001
0.01208 -0.26339999 -0.18099999
0.070629999 0.0083900001 0.035110001
-0.1043 -0.096689999 0.1309
-0.076559998 0.088890001 0.06865
0.096670002 -0.08467 -0.06095
-0.041960001 -0.2177 0.1134
0.087240003 -0.1807 -0.093460001
0.02885 -0.08969 -0.37059999
-0.101 -0.122 0.1029
-0.082099997 -0.1353 -0.2658
-0.082160003 -0.1813 0.066200003
-0.082120001 -0.1648 0.17900001
0.09567 -0.1121 -0.11
0.087130003 -0.1102 -0.1876
-0.061779998 0.03737 0.1035
0.096600004 -0.073810004 -0.039039999
-0.055210002 -0.02287 -0.035799999
-0.056430001 -0.033209998 -0.1444
-0.079810001 -0.1219 -0.2475
-0.02702 -0.22050001 0.1349
0.085430004 -0.046840001 -0.066289999
0.028200001 0.0075400001 -0.077830002
0.097800002 -0.1201 -0.064819999
0.09973 -0.1372 0.048549999
-0.02194 -0.091169998 -0.033569999
-0.1366 -0.20370001 0.1312
0.073200002 -0.16670001 -0.37259999
-0.0051859999 -0.2291 0.1079
0.078890003 -0.2084 -0.1049
-0.073980004 -0.16599999 -0.3459
0.083930001 -0.1867 0.031679999
-0.074720003 -0.189 -0.33489999
-0.017039999 -0.235 0.04879
0.081289999 -0.020919999 -0.0050869999
0.063529998 -0.22409999 -0.03356
-0.0018110001 0.04053 0.09228
-0.1367 0.074759997 0.01534
-0.1532 -0.20469999 0.1132
-0.039919998 -0.03032 -0.178
-0.079630002 -0.20029999 -0.16500001
0.067079999 -0.22849999 -0.1214
-0.00017499999 -0.052390002 -0.05418
-0.04524 0.003155 -0.068290003
0.08867 -0.18099999 -0.1428
-0.0056500002 -0.067479998 -0.317
-0.032809999 -0.088200003 -0.0067560002
-0.045469999 -0.22139999 0.079630002
-0.07446 -0.21170001 -0.2252
-0.1043 -0.094690003 0.08202
-0.06989 -0.20819999 0.01398
0.067699999 -0.0036770001 -0.0068870001
-0.073100001 0.0073819999 0.01494
-0.04862 -0.2482 -0.1956
-0.016559999 -0.27149999 -0.32359999
0.033890001 -0.2184 0.1198
0.084239997 -0.189 -0.06106
-0.071079999 -0.07378 0.01911
-0.01083 -0.26530001 -0.2033
0.06594 -0.1181 -0.32859999
-0.02534 -0.01217 -0.1357
0.044670001 -0.25580001 -0.25240001
-0.060290001 -0.1997 0.1323
-0.070629999 -0.1305 -0.324
-0.0176 -0.057539999 -0.28080001
0.088469997 -0.05996 -0.078869998
-0.0054139998 -0.002173 0.1
-0.075319998 -0.2158 -0.13940001
0.065059997 -0.23270001 -0.3344
-0.033720002 -0.24519999 -0.066270001
-0.089479998 -0.0093069999 0.086920001
-0.081320003 -0.1005 -0.198
-0.01835 -0.020819999 -0.06078
-0.054719999 -0.083269998 -0.28889999
0.091310002 -0.156 -0.1434
0.099160001 -0.078740001 -0.01754
0.0524 -0.075750001 -0.2845
-0.091109999 -0.1112 -0.13249999
-0.08083 -0.19599999 -0.1883
0.053490002 0.03066 0.061760001
-0.097410001 -0.068180002 -0.0118
-0.1026 -0.095370002 0.01555
-0.1038 -0.09527 0.048289999
-0.0134 -0.02445 -0.1892
0.077160001 -0.21250001 -0.19769999
0.0162 -0.04152 -0.2402
0.080219999 -0.1946 -0.2307
0.091020003 -0.1569 0.081280001
-0.01204 -0.27579999 -0.36919999
-0.088440001 -0.065119997 -0.088380001
-0.054880001 -0.1999 0.15979999
0.084559999 -0.1778 -0.2089
-0.088639997 -0.17200001 -0.1267
-0.1038 -0.078790002 0.121
-0.098540001 -0.088119999 -0.020230001
-0.0568 -0.24339999 -0.34920001
0.1023 -0.1011 0.070139997
0.051720001 -0.2509 -0.30720001
0.04507 -0.25619999 -0.2744
0.05762 -0.24590001 -0.2358
0.03974 -0.021330001 -0.1441
0.070739999 -0.2027 -0.36160001
0.0264 -0.070220001 -0.31740001
-0.097379997 -0.1172 -0.09381
-0.06938 -0.0012460001 0.1011
-0.089769997 -0.089270003 -0.1106
0.035330001 -0.26620001 -0.30720001
-0.09674 -0.1497 -0.055599999
-0.056759998 -0.245 -0.21799999
-0.069689997 -0.22669999 -0.1723
0.002783 -0.25889999 -0.1191
-0.09065 -0.16599999 -0.154
0.035250001 -0.2492 -0.083329998
-0.07096 -0.1141 -0.29139999
-0.037360001 0.02495 0.075199999
0.068350002 -0.22390001 -0.082659997
0.101 -0.1119 0.020880001
0.076180004 -0.080930002 -0.1913
0.031490002 -0.25409999 -0.13789999
-0.1476 0.081569999 0.047669999
0.05401 -0.01902 -0.1098
-0.071060002 -0.2173 -0.3258
-0.075290002 -0.18269999 0.15549999
-0.061330002 -0.23729999 -0.26710001
-0.04253 -0.23720001 -0.03469
-0.096210003 -0.17399999 0.1498
-0.06188 -0.2397 -0.2343
0.072360002 -0.2155 -0.26840001
0.053309999 -0.2465 -0.1762
0.070440002 -0.2184 -0.29629999
0.091410004 -0.035569999 0.01018
0.073229998 -0.1495 -0.33500001
-0.089670002 -0.15019999 -0.1761
0.081280001 -0.097719997 -0.1965
-0.068999998 -0.22480001 -0.105
-0.079740003 -0.20039999 -0.1486
0.078819998 -0.2087 -0.1595
-0.040339999 -0.083010003 -0.32449999
-0.085390002 -0.01166 0.05878
-0.026149999 -0.2674 -0.2527
0.053410001 -0.062849998 -0.026380001
0.076159999 -0.138 -0.31290001
-0.01661 0.002077 -0.099749997
0.02526 -0.018990001 -0.15620001
-0.087970003 -0.1218 -0.20020001
-0.076310001 -0.1085 -0.26030001
-0.0515 0.043110002 0.092440002
-0.095140003 -0.15459999 -0.08275
-0.072310001 -0.047169998 -0.13699999
-0.078919999 -0.2036 -0.24690001
-3.4000001e-05 -0.02153 -0.1768
-0.047049999 -0.2475 -0.1666
-0.1032 -0.062550001 0.09753
0.04989 -0.24429999 -0.1429
0.090939999 -0.1499 -0.19769999
0.075999998 -0.053539999 -0.1256
-0.01135 -0.2622 -0.17020001
-0.071400002 -0.057080001 -0.1672
5.6000001e-05 -0.092869997 -0.39910001
0.0053289998 -0.2362 0.064460002
0.064460002 0.023630001 0.033709999
0.017170001 -0.2437 -0.0060589998
-0.079080001 -0.2031 -0.039349999
0.021840001 -0.25240001 -0.071740001
-0.0902 -0.04524 -0.0067030001
0.046859998 -0.04778 -0.21799999
-0.072250001 -0.029410001 -0.078160003
-0.098159999 -0.095229998 -0.034290001
-0.078050002 -0.1561 -0.32300001
-0.092469998 -0.12819999 -0.1595
-0.06718 -0.083999999 -0.24250001
-0.02427 -0.24879999 -0.048769999
-0.097400002 -0.0244 0.1249
-0.00012300001 -0.06174 -0.30070001
-0.06137 -0.1286 -0.38339999
-0.06019 -0.092880003 -0.30379999
-0.076849997 -0.1948 0.060350001
-0.066090003 -0.02568 -0.092019998
0.033470001 -0.01859 -0.055130001
-0.1025 -0.1114 0.1358
0.083120003 -0.1444 -0.25260001
0.055780001 -0.093549997 -0.31400001
0.02018 -0.1005 -0.4052
-0.019239999 -0.2432 0.0086070001
0.1258 0.077430002 0.03115
-0.1018 -0.117 0.0045520002
-0.1013 -0.1065 0.103
-0.097840004 -0.040589999 0.097439997
-0.067539997 -0.1605 -0.38960001
-0.075850002 -0.17730001 -0.3563
-0.050700001 -0.1152 -0.39399999
0.1274 0.077940002 0.0061880001
0.0047479998 -0.073820002 -0.049570002
-0.1028 -0.078979999 0.042849999
0.027349999 -0.09285 -0.02884
-0.084729999 -0.177 -0.24150001
-0.1016 -0.117 -0.017279999
-0.01842 -0.091020003 -0.3856
-0.057560001 -0.078869998 -0.020989999
-0.044220001 -0.2369 -0.01946
-0.1531 0.080150001 -0.0026120001
-0.076870002 -0.2057 -0.024089999
0.098289996 -0.146 -0.0173
0.081009999 -0.1718 -0.3071
0.03661 -0.073859997 -0.30649999
-0.018580001 -0.2208 0.1476
0.070419997 -0.01349 -0.047759999
-0.097860001 -0.1444 -0.033769999
0.0054509998 -0.09144 -0.03943
-0.095239997 -0.1489 0.080949999
-0.0678 -0.073420003 0.0042849998
0.04377 -0.090369999 -0.34560001
-3.0000001e-06 -0.27509999 -0.3017
0.092370003 -0.1062 -0.1376
0.083810002 -0.0070750001 0.059009999
-0.098200001 0.080250002 0.042939998
-0.089890003 -0.1283 -0.1867
-0.05353 -0.037349999 -0.031890001
0.025459999 -0.029650001 -0.189
-0.1011 -0.1119 0.048280001
0.077430002 -0.21259999 -0.14309999
0.1023 -0.1224 0.048280001
0.030990001 -0.081309997 0.02266
0.071610004 0.0089809997 0.0039590001
-0.040750001 -0.2554 -0.18520001
0.076669998 -0.003298 0.021810001
-0.040320002 0.0019700001 -0.052639998
-0.088260002 -0.1762 -0.070189998
0.064620003 -0.1319 -0.36199999
-0.072350003 -0.08777 -0.22579999
-0.080310002 -0.044489998 -0.078039996
0.01331 0.0090089999 -0.086489998
0.031509999 -0.050340001 -0.25220001
-0.081079997 -0.19660001 -0.068340003
0.0088210003 -0.27110001 -0.24169999
0.088310003 -0.17550001 -0.1866
-0.089539997 -0.029030001 0.037140001
0.072410002 -0.1661 -0.3567
0.07113 -0.20720001 -0.37549999
0.054760002 -0.2466 -0.33149999
-0.082529999 -0.026869999 -0.0151
-0.036619999 -0.088940002 -0.3556
0.083580002 -0.18889999 -0.028240001
-0.043740001 -0.082369998 0.01075
0.054960001 -0.2279 -0.02245
0.079170004 -0.19850001 -0.27419999
-0.08303 -0.05257 -0.093269996
0.05105 -0.1201 -0.39649999
0.069739997 -0.099299997 -0.26890001
-0.031739999 -0.23289999 0.048590001
-0.01414 -0.083319999 -0.3599
0.093539998 -0.1388 -0.16150001
-0.075379997 -0.20999999 -0.28029999
-0.1586 0.07553 0.0207
0.089869998 -0.1176 -0.17560001
-0.175 0.080920003 0.001386
0.071450002 -0.19320001 -0.37239999
-0.042569999 -0.042240001 -0.2013
0.050530002 -0.07835 -0.02957
-0.01118 -0.048930001 -0.2588
-7.4000003e-05 -0.25560001 -0.088229999
-0.074050002 -0.17749999 -0.37259999
-0.060740001 -0.23810001 -0.1662
0.099959999 -0.1228 0.064719997
-0.02516 0.03018 0.080090001
-0.082079999 -0.089309998 -0.1838
-0.045079999 -0.2085 0.1463
0.072339997 -0.20999999 -0.3123
-0.021090001 -0.043219998 -0.24079999
0.01316 -0.073260002 -0.3378
2e-06 -0.044240002 -0.2476
0.087389998 -0.036759999 -0.0080509996
-0.01337 -0.24879999 -0.027179999
0.070969999 -0.030230001 -0.087789997
0.080109999 -0.1068 -0.2358
-0.07429 0.022329999 0.114
-0.0099870004 -0.072149999 -0.05139
-0.084299996 -0.074469998 -0.1372
5.8000001e-05 -0.2392 0.047649998
0.048039999 -0.034949999 -0.041209999
-0.075690001 0.01411 0.070639998
0.099600002 -0.1376 0.01543
-0.0704 -0.1002 -0.27379999
0.075220004 -0.2025 0.0046950001
0.081649996 -0.022910001 -0.02107
0.077310003 -0.19580001 -0.3206
-0.0255 -0.25400001 -0.1113
-0.083310001 -0.04118 -0.06089
0.086049996 -0.073830001 -0.1265
-0.089249998 -0.023669999 0.05359
-0.05931 -0.1079 -0.3353
0.0114 -0.084179997 0.0022450001
-0.034729999 -0.063490003 -0.042459998
0.0034690001 -0.02125 -0.061299998
0.070840001 -0.1988 0.069990002
-0.1039 0.1097 0.071549997
0.035050001 -0.04662 -0.04603
-0.067929998 -0.2272 -0.2233
-0.089359999 -0.1754 0.0097639998
-0.081600003 -0.0095729996 0.031319998
-0.077610001 -0.1911 -0.32179999
0.032910001 0.045570001 0.060339998
-0.06058 -0.03875 -0.156
0.065549999 -0.2208 -0.050000001
-0.0048039998 0.0035860001 -0.1071
0.094230004 -0.15459999 -0.1156
-0.042369999 -0.2429 -0.081629999
0.02012 -0.094910003 -0.38890001
-0.1258 0.095200002 0.042259999
-0.08151 -0.19149999 -0.0080829998
-0.01293 -0.25850001 -0.12800001
-0.032269999 0.0086749997 -0.073299997
-0.034820002 -0.044289999 -0.221
0.045770001 -0.1043 -0.3795
0.1258 0.087289996 0.0221
0.087499999 -0.16509999 0.09172
-0.01077 -0.2755 -0.35080001
-0.03892 -0.03396 -0.045990001
-0.080320001 -0.1693 0.1666
-0.045049999 -0.2543 -0.20720001
-0.047090001 -0.0091819996 -0.094599999
-0.064060003 0.024660001 0.053709999
0.01147 -0.23800001 0.037749998
0.087070003 -0.023189999 0.01203
0.0106 -0.0105 -0.1476
-0.069459997 -0.2263 -0.145
0.071740001 -0.19490001 0.108
0.045260001 -0.034090001 -0.1719
0.017170001 -0.052269999 -0.26609999
0.047589999 -0.00296 -0.073810004
0.031500001 -0.05579 -0.2687
0.020679999 -0.018610001 -0.060389999
0.083169997 -0.037969999 -0.05706
0.026550001 -0.24779999 -0.044739999
-0.082060002 -0.20029999 -0.1176
0.058649998 -0.2306 -0.077260002
0.092050001 -0.072559997 -0.06072
-0.1025 -0.08427 0.091949999
-0.14210001 -0.20819999 0.1187
0.051989999 -0.2288 0.009784
0.052250002 -0.2198 0.04868
-0.03971 -0.25400001 -0.1583
-0.054000001 -0.058929998 -0.22319999
0.067089997 -0.22130001 -0.33989999
0.092459999 -0.1557 -0.1596
-6.0999999e-05 -0.036060002 -0.2225
-0.1148 0.090559997 0.030719999
0.056809999 -0.038619999 -0.1662
-0.087990001 -0.1742 -0.1954
0.086230002 -0.1831 -0.049959999
-0.02533 0.045290001 0.064319998
-0.08506 -0.085110001 -0.15369999
0.0113 -0.0029160001 -0.063830003
0.019819999 -0.057250001 -0.27919999
-0.091470003 -0.1552 0.14669999
-0.076180004 -0.1021 -0.24690001
0.02289 -0.2385 0.02142
0.065520003 -0.080140002 -0.24339999
-0.072209999 -0.01143 -0.03317
0.061650001 -0.059969999 -0.20479999
-0.053989999 -0.24690001 -0.36379999
-0.02802 -0.26660001 -0.29069999
0.062550001 -0.1161 -0.3405
-0.084810004 -0.15019999 -0.2577
-0.03644 -0.26370001 -0.35820001
-0.050469998 -0.2378 -0.062410001
-0.00012500001 -0.26359999 -0.17550001
-0.078000002 -0.1718 -0.31279999
0.03005 -0.2255 0.086989999
0.078199998 -0.183 -0.30180001
-0.06515 -0.07057 -0.2175
0.06707 -0.2057 0.05418
-0.098329999 -0.1398 -0.045279998
0.095200002 -0.1442 -0.1321
0.089129999 -0.1015 -0.1591
0.01113 -0.018200001 -0.1638
-0.022849999 -0.2353 0.037900001
-0.078890003 -0.02867 -0.039579999
0.062120002 -0.032030001 -0.023229999
0.064329997 -0.2374 -0.24160001
0.039999999 -0.241 -0.049529999
0.0105 -0.046360001 -0.054639999
0.034790002 -0.2369 0.017929999
-0.055879999 -0.050360002 -0.2024
-0.19140001 0.082269996 0.0052970001
-0.098410003 -0.083590001 -0.006519
-0.076049998 -0.067060001 -0.1602
-0.1312 -0.2013 0.1205
-0.16949999 0.077430002 0.03115
0.022469999 -0.22400001 0.1089
-0.066239998 -0.21080001 0.043869998
0.005562 -0.26789999 -0.22490001
-0.095409997 -0.15459999 0.02633
-0.05384 -0.078550003 -0.27770001
-0.097400002 -0.1444 -0.066550002
-0.059659999 -0.22579999 -0.0407
-0.055629998 -0.028550001 -0.1332
0.033989999 -0.24600001 -0.071670003
0.038770001 -0.2647 -0.35100001
-0.096730001 -0.067120001 0.0041720001
0.088529997 -0.02348 0.041999999
0.089019999 -0.1723 0.0045889998
-0.065279998 -0.221 -0.02483
0.016790001 -0.2561 -0.1101
0.09764 -0.1443 -0.077459998
0.099849999 -0.1228 0.01545
-0.1454 0.073820002 0.0069820001
0.02142 -0.27110001 -0.2852
-0.089500003 -0.17039999 0.048110001
0.015699999 -0.27340001 -0.30180001
-0.058150001 -0.005347 0.1006
-0.067450002 -0.0090760002 -0.044100001
0.092940003 -0.049690001 -0.01288
-0.093719997 -0.085179999 -0.087849997
0.01331 -0.0021259999 -0.1219
-0.062789999 -0.2071 0.088179998
-0.069109999 -0.2168 -0.061280001
-0.07987 -0.19239999 0.042599998
-0.034480002 -0.02251 -0.15530001
-0.0601 -0.23729999 -0.13410001
-0.06005 -0.1252 -0.37090001
-0.074869998 -0.2149 -0.25240001
-0.075010002 -0.1918 0.096649997
0.1488 0.07418 0.0105
-0.070440002 -0.067450002 -0.1973
0.094329998 -0.069179997 -0.04961
0.072190002 -0.053309999 -0.1541
-0.036370002 -0.1075 -0.40110001
0.094559997 -0.1503 0.042849999
0.071170002 -0.20630001 0.039820001
-0.031610001 -0.2678 -0.30180001
3.2e-05 -0.27329999 -0.26910001
-0.01091 -0.22050001 0.1576
-0.094130002 -0.117 -0.105
0.041850001 -0.24770001 -0.121
0.081419997 -0.1999 -0.0557
-0.047010001 -0.025800001 -0.14380001
-0.09883 -0.14139999 0.0022470001
-0.05266 -0.091980003 -0.31830001
0.072250001 -0.2189 -0.28490001
0.073710002 -0.21969999 -0.2142
0.04459 -0.21619999 0.1161
-0.0174 -0.079539999 -0.34639999
-0.083719999 -0.1733 0.1409
-0.08343 -0.1005 -0.1815
-0.005471 -0.094980001 -0.038970001
-0.095080003 -0.13959999 0.097549997
0.054960001 -0.073310003 -0.2631
-0.02861 -0.2703 -0.35299999
0.045310002 -0.01482 -0.116
0.083059996 -0.19660001 -0.19769999
-0.07508 -0.21510001 -0.1054
0.1594 0.073210001 -0.002236
-0.05438 -0.2201 0.051460002
-0.059659999 -0.2202 0.02414
-0.092469998 -0.167 -0.09437
-0.076980002 0.002718 0.048280001
-0.086750001 0.0012159999 0.103
-0.05077 0.0086040003 0.094740003
0.008591 -0.24779999 -0.03067
0.2025 0.07559 -0.01009
0.08241 -0.1587 -0.28909999
-0.071649998 -0.1548 -0.36950001
0.0143 -0.25839999 -0.1292
-0.098410003 -0.17110001 0.1628
-0.093379997 -0.063040003 -0.02585
0.044969998 -0.2599 -0.30720001
0.087300003 -0.1798 0.02351
-0.094719999 -0.04019 0.059099998
-0.081880003 0.01231 0.1245
0.06955 -0.2202 -0.06134
0.070550002 -0.1578 -0.3664
0.035100002 0.0099090002 -0.06938
-0.050020002 -0.02008 -0.1286
-0.054310001 -0.2476 -0.27860001
-0.04961 -0.23360001 -0.042509999
0.055610001 -0.1228 -0.38620001
0.015830001 -0.037859999 -0.2297
-0.096019998 -0.1451 -0.01737
-0.01054 -0.05759 -0.292
-0.035700001 -0.21430001 0.1398
0.069660001 -0.05294 0.008378
0.049600001 -0.054529998 -0.032639999
-0.1532 -0.2113 0.1043
0.05308 -0.24699999 -0.21950001
0.064960003 -0.2253 -0.3538
-0.065650001 -0.038720001 -0.13959999
-0.061349999 -0.033349998 -0.025189999
0.081749998 -0.1945 0.0098430002
-0.024599999 -0.2692 -0.3308
0.093149997 -0.036290001 0.046239998
0.07474 -0.21269999 -0.1157
-0.07959 -0.20020001 -0.176
0.090389997 -0.1503 -0.1707
0.069760002 -0.2147 -0.0066920002
-0.027960001 -0.26109999 -0.2086
-0.075070001 0.0094450004 0.096179999
0.080140002 -0.1988 -0.2579
-0.088179998 -0.1762 -0.05923
0.099200003 -0.125 -0.074519999
0.092979997 -0.16760001 -0.08839
-0.01093 -0.01792 0.1055
-0.071079999 0.1044 0.113
0.093379997 -0.1639 -0.00085399998
-0.090180002 -0.16599999 -0.1649
-0.091729999 -0.1497 0.1574
0.0405 0.007038 -0.053339999
-0.01134 -0.2456 -0.01702
-0.07282 -0.19410001 -0.34560001
0.1012 -0.095519997 -0.02263
-0.069870003 -0.09488 -0.2527
0.097180001 -0.1355 0.081079997
-0.05345 -0.2096 0.1044
-0.048920002 -0.25279999 -0.2272
-0.05821 0.039779998 0.1134
-0.033240002 0.03472 0.057599999
-0.02104 -0.27129999 -0.3655
0.067550004 -0.22149999 -0.3292
-0.06199 -0.02224 -0.1043
-0.1043 -0.096830003 0.1202
0.0296 -0.008374 -0.05686
-0.055089999 -0.23810001 -0.1137
0.09149 -0.073770002 -0.088270001
0.093359999 -0.092560001 -0.1061
0.075960003 -0.072509997 -0.1848
0.063390002 -0.046429999 -0.01344
0.05982 -0.024569999 -0.1187
-0.098609999 -0.061500002 0.018379999
-0.082819998 -0.1127 -0.22409999
-0.073969997 -0.12890001 -0.3123
-0.082359999 0.08439 0.056260001
-0.0098029999 -0.01228 -0.06191
0.03748 -0.045639999 -0.22220001
-0.07051 -0.13789999 -0.33559999
-0.062959999 0.027790001 0.099440001
0.063610002 -0.082960002 0.001286
0.083350003 -0.030950001 -0.034010001
0.087159999 -0.044799998 -0.04823
0.046569999 -0.2507 -0.16509999
0.098849997 -0.06543 0.0059349998
-0.026110001 -0.26030001 -0.1645
-0.075439997 -0.21610001 -0.1778
0.046459999 -0.01176 -0.044769999
0.048289999 -0.090580001 -0.3283
0.04727 -0.077069998 -0.30160001
-0.1044 -0.095380001 0.092399999
-0.080750003 -0.123 -0.25780001
0.03641 -0.24789999 -0.093520001
-0.092900001 -0.05483 -0.0039900001
-0.08636 -0.1664 0.12819999
-0.04645 -0.24609999 -0.13940001
-0.065530002 -0.1201 -0.33239999
-0.072279997 -0.03317 -0.098750003
-0.087059997 -0.1751 -0.15099999
0.075829998 -0.15449999 -0.32600001
0.079439998 -0.1495 -0.28580001
-0.093220003 -0.15880001 -0.052579999
-0.070639998 -0.20900001 0.00058300002
0.088519998 -0.1814 -0.1212
-0.097549997 -0.046190001 0.048330002
0.080940001 -0.1806 0.086769998
-0.028899999 -0.06123 -0.28709999
-0.02031 -0.054949999 -0.05071
0.071439996 -0.1699 -0.3899
-0.024350001 -0.25389999 -0.0898
0.02221 -0.2286 0.081440002
-0.0056799999 -0.2286 0.097840004
-0.052370001 -0.25150001 -0.26179999
0.02657 -0.061590001 -0.28529999
0.045260001 -0.02864 -0.15549999
-0.054219998 -0.1245 -0.39559999
-0.088299997 -0.1561 0.13150001
-0.035939999 -0.080669999 -0.33320001
-0.00045399999 0.01343 0.097970001
-0.080530003 -0.191 0.01376
-0.05029 0.04166 0.06707
-0.19050001 0.073250003 -0.001566
-0.080580004 -0.1988 -0.2361
0.08664 -0.1885 -0.082970001
-0.083290003 -0.1921 -0.20739999
0.077459998 -0.04665 -0.1018
-0.0317 -0.2383 0.01575
0.091430001 -0.1714 -0.1267
-0.019339999 -0.2696 -0.287
0.085660003 -0.1841 -0.03915
0.080590002 -0.2045 -0.19230001
-0.02117 -0.24590001 -0.017650001
-0.045899998 -0.2563 -0.32949999
0.05088 -0.25049999 -0.24690001
0.04504 -0.094379999 -0.3545
-0.0103 0.0048230002 -0.069490001
0.027410001 -0.09448 -0.038509998
0.078440003 -0.1128 -0.25740001
-0.05923 0.022700001 0.033799998
0.060150001 -0.1015 -0.31760001
0.08145 -0.1978 -0.1294
-0.028650001 -0.039560001 -0.21520001
0.082089998 -0.033229999 -0.048670001
-0.028620001 0.002868 -0.06645
-0.082670003 -0.052519999 -0.082929999
0.0056210002 -0.05029 -0.2723
-0.069320001 -0.197 0.090439998
-0.078890003 -0.1127 -0.252
-1.1e-05 -0.2581 -0.1099
0.02348 -0.090180002 -0.3786
0.071460001 -0.1258 -0.32460001
-0.082429998 -0.05985 -0.1026
-0.075329997 -0.2031 0.019929999
-0.082549997 -0.1166 -0.23280001
0.093060002 -0.08021 -0.068530001
0.051120002 -0.045699999 -0.035799999
0.072460003 -0.037110001 -0.1103
-0.087750003 -0.023709999 0.0185
-0.059470002 0.034770001 0.081739999
-0.062930003 -0.2183 -0.00266
0.05906 -0.0638 -0.2242
0.04042 -0.01283 -0.051929999
-0.075259998 -0.21600001 -0.1504
0.017759999 -0.073810004 -0.32960001
0.060880002 -0.2058 0.092469998
0.1868 0.073210001 -0.00223
-0.081629999 -0.1455 -0.26589999
0.00042600001 -0.233 0.085040003
-0.066200003 -0.2265 -0.1138
-0.0091639999 -0.0222 -0.062010001
0.05841 -0.070610002 -0.25119999
-0.021299999 -0.2439 -0.000489
0.055780001 -0.083679996 -0.2881
-0.028030001 -0.2145 0.1573
0.086669996 -0.1089 -0.17470001
0.070730001 -0.2114 -0.36719999
-0.03159 -0.2323 0.039299998
-0.039779998 -0.052170001 -0.2436
0.09217 -0.133 -0.1503
-0.054559998 -0.0143 -0.092079997
-0.091080002 -0.1673 -0.05562
-0.05421 -0.24770001 -0.29300001
0.0054020002 -0.2647 -0.1873
-0.088629998 -0.1804 -0.13060001
-0.041900001 -0.08027 -0.31349999
-0.02265 -0.0086110001 -0.1276
0.056930002 -0.2395 -0.1214
0.02894 -0.22139999 0.127
-0.035610002 -0.027860001 -0.052069999
0.1225 0.082850002 0.01227
-0.030950001 -0.028820001 -0.1794
0.04868 -0.063620001 -0.2606
0.018370001 -0.095229998 -0.39789999
-0.084629998 -0.083559997 -0.138
-0.081979997 0.008537 0.1055
-0.048409998 -0.074610002 -0.032650001
-0.04589 0.05181 0.1169
-0.070440002 -0.18799999 0.161
-0.093060002 -0.1515 0.1118
-0.01585 -0.02936 -0.059429999
0.071900003 -0.1938 -0.3619
-0.099210002 -0.13060001 0.1047
-0.086949997 -0.12819999 -0.2142
-0.087540001 -0.17389999 0.060139999
0.065669999 -0.1102 -0.32440001
-0.076800004 -0.026520001 -0.048009999
0.039129999 -0.1006 -0.38420001
0.076439999 -0.21269999 -0.2332
-0.023979999 -0.030549999 -0.1999
-0.061650001 -0.23199999 -0.36610001
0.0055869999 -0.2357 0.054370001
0.065949999 -0.059829999 -0.0043119998
-0.029209999 -0.041370001 -0.2272
0.034109998 -0.24429999 -0.05539
-0.086999997 -0.01381 0.067209996
0.02891 -0.25470001 -0.108
-0.069859996 0.0090969997 0.0025849999
-0.06151 -0.2392 -0.207
-0.077469997 -0.18179999 -0.3391
-0.084590003 -0.107 -0.20290001
0.011 -0.2552 -0.093769997
-0.03971 -0.26140001 -0.366
-0.04205 -0.02908 -0.1696
0.05804 -0.0152 -0.087159999
0.036389999 -0.2163 0.1279
-0.081430003 -0.091179997 -0.19230001
-0.049210001 -0.072269998 -0.2816
0.067670003 -0.058309998 -0.18719999
0.052510001 -0.0039550001 -0.065350004
-0.02606 -0.052170001 -0.25639999
0.02644 0.040890001 0.086489998
0.04064 -0.26100001 -0.2581
-0.080399998 -0.1338 -0.27419999
-0.02313 -0.070289999 -0.31369999
-0.05387 -0.24250001 -0.1691
-0.08484 -0.0308 -0.02244
-0.04699 -0.086900003 -0.32839999
-0.0052430001 -0.026219999 -0.1972
-0.09296 -0.1478 0.099140003
-0.061500002 -0.072070003 -0.01224
-0.032850001 -0.26609999 -0.37099999
-0.038880002 -0.2422 -0.041359998
0.066480003 -0.09567 -0.27689999
-0.057209998 -0.089079998 -0.015900001
-0.022670001 -0.26199999 -0.19760001
0.08117 -0.05776 -0.1203
0.062569998 -0.040259998 -0.02108
-0.04318 -0.21610001 0.1052
0.048289999 -0.02427 -0.1372
-0.065509997 -0.18790001 0.17910001
-0.08281 -0.1875 0.0064900001
-0.076109998 -0.208 -0.1011
-0.040920001 -0.2446 -0.070469998
-0.079060003 -0.1864 0.091739997
0.039190002 -0.25440001 -0.15710001
-0.075489998 -0.072839998 -0.18619999
-0.071149997 0.026939999 0.1007
0.064209998 -0.2306 -0.14839999
-0.075510003 0.019479999 0.09245
-0.080289997 -0.2041 -0.1868
-0.062430002 0.01636 0.096689999
-0.025599999 -0.023089999 -0.05762
-0.088100001 -0.1275 -0.2061
-0.060219999 -0.01439 -0.075649999
-0.028200001 -0.24169999 -0.01784
0.098119996 -0.054359999 0.0526
-0.04984 -0.2493 -0.2177
0.059810001 -0.04109 -0.1561
0.02868 -0.05923 -0.2755
0.070909999 -0.01959 -0.05483
-0.026419999 -0.017999999 -0.1587
-0.093259998 -0.15809999 0.060910001
-0.096969999 -0.1344 -0.039409999
0.058389999 -0.067910001 -0.01847
-0.068700001 -0.0801 -0.23559999
-0.069859996 -0.1557 -0.3836
-0.046100002 -0.044259999 -0.20819999
0.060120001 0.0058889999 -0.03427
-0.02871 -0.2678 -0.34540001
-0.076480001 -0.20550001 -0.014
0.094190001 -0.1541 -0.1265
0.09189 -0.17219999 -0.02784
0.04696 -0.25130001 -0.17659999
0.02623 -0.26980001 -0.37
0.03091 -0.019230001 -0.1506
-0.095320001 -0.1115 -0.088660002
0.071659997 -0.1096 -0.29179999
-0.0072849998 -0.0093660001 0.1028
0.065990001 -0.1258 -0.3549
-0.06157 -0.1948 0.17550001
-0.03153 -0.06538 -0.2958
0.053830002 -0.02469 -0.1261
-0.04259 -0.2588 -0.3003
0.05793 -0.053780001 -0.208
0.04284 -0.21600001 0.1084
0.019929999 -0.034940001 -0.211
0.1016 -0.090020001 -0.0062899999
-0.059220001 -0.24330001 -0.34169999
-0.09809 -0.09008 -0.028340001
0.072290003 -0.022120001 -0.068000004
0.032540001 0.032060001 0.05759
-0.005258 -0.040800001 -0.243
0.01479 -0.067230001 -0.3125
-0.1015 -0.09522 0.03726
0.037450001 -0.01777 -0.1376
-0.031500001 -0.01083 -0.1312
0.082010001 -0.18179999 0.064410001
-0.074050002 -0.1944 -0.3294
-0.1038 -0.089809999 0.053750001
-0.059560001 -0.2367 -0.1737
-0.092589997 -0.07237 -0.056049999
0.091009997 -0.15530001 -0.19220001
-0.066739999 -0.22669999 -0.1522
-0.103 -0.084409997 0.037390001
-0.101 -0.1007 0.02084
-0.098070003 -0.1226 -0.088420004
0.054680001 -0.25 -0.3425
0.09826 -0.1436 0.042690001
-0.02733 0.01344 0.1001
-0.054019999 -0.199 0.17039999
-0.085699998 -0.057610001 -0.088179998
-0.07243 -0.20100001 0.060740001
0.06978 -0.219 -0.088320002
0.02475 -0.2439 -0.0067289998
0.09104 -0.1338 -0.1812
-0.01095 -0.091020003 -0.38420001
-0.075209998 -0.17129999 -0.34060001
-0.063019998 -0.22920001 -0.1066
-0.072549999 -0.060320001 -0.1602
-0.0933 -0.1461 0.15090001
-0.1001 -0.05675 0.091949999
-0.077330001 -0.2041 -0.064659998
-0.080569997 -0.17470001 0.1286
0.075000003 0.00085100002 0.027869999
-0.095899999 -0.12809999 -0.094109997
0.09685 -0.1173 -0.1047
0.086680003 -0.1584 -0.2226
0.063029997 -0.20200001 0.1031
-0.054680001 0.1029 0.1081
0.01094 -0.088200003 -0.0067560002
0.033690002 -0.09014 -0.36489999
-0.055939998 0.04205 0.1036
-0.0425 -0.2482 -0.13339999
0.088699996 -0.117 -0.16509999
0.086170003 -0.023290001 0.02138
0.056770001 -0.044070002 -0.18269999
-0.073770002 -0.21960001 -0.1869
0.03929 -0.05728 -0.26109999
-0.029270001 -0.22660001 0.092969999
0.066229999 -0.023189999 -0.094910003
-0.077830002 -0.16680001 -0.33399999
-0.077629998 -0.03094 -0.06594
-0.095930003 -0.041329999 0.043019999
-0.061719999 -0.1955 0.1538
0.068319999 -0.094039999 -0.264
0.069990002 -0.048289999 0.0027350001
-0.076049998 -0.1507 -0.31580001
-0.078879997 -0.134 -0.285
0.07186 -0.1717 -0.36750001
-0.085940003 -0.1164 -0.1928
9.9999997e-06 -0.2484 -0.03056
-0.090860002 -0.024940001 0.042989999
-0.066019997 -0.2335 -0.2263
-0.067780003 -0.0025810001 -0.03317
-0.076640002 -0.18189999 0.1237
0.073469996 -0.21080001 -0.27990001
-0.038260002 -0.087020002 -0.01129
0.085670002 -0.17839999 -0.1926
0.089040004 -0.171 -0.1921
-0.085790001 -0.17649999 0.070029996
-0.067259997 -0.09544 -0.2696
-0.05449 -0.088969998 -0.3053
-0.057689998 -0.2464 -0.31810001
-0.066940002 -0.065750003 -0.20819999
0.058839999 -0.22570001 -0.02792
-0.069310002 -0.2237 -0.2379
-0.1048 -0.088200003 0.11
0.082989998 -0.1929 -0.088409998
-0.067989998 -0.214 0.01056
-0.082149997 -0.1707 0.1346
0.080880001 -0.048560001 -0.087090001
-0.047770001 0.04434 0.086659998
-0.08788 -0.15449999 0.1541
-0.077260002 -0.081940003 -0.1973
0.041760001 -0.061379999 -0.26859999
0.072059996 -0.051759999 -0.1401
-0.06137 -0.034230001 -0.1331
-0.036880001 -0.25670001 -0.1762
0.056120001 -0.2441 -0.22499999
0.02736 -0.085139997 0.007644
0.020710001 -0.072530001 -0.32350001
0.058770001 -0.086549997 -0.2947
0.052189998 -0.2308 -0.028000001
0.092150003 -0.1529 0.086709999
0.070019998 -0.2031 0.048590001
0.071939997 -0.2145 -0.29089999
-0.08749 0.1154 0.082309999
0.098580003 -0.14120001 0.053950001
0.080339998 -0.1982 -0.001018
-0.1312 0.096929997 0.04603
0.052450001 -0.25209999 -0.37270001
-0.14049999 0.073490001 0.0022839999
0.064290002 -0.22490001 -0.077310003
-0.099380001 -0.079070002 -0.01149
0.071050003 -0.2203 -0.14309999
0.083460003 -0.1964 -0.061140001
-4e-06 0.005471 -0.094619997
-5.1999999e-05 -0.048039999 -0.25920001
-0.093220003 -0.1541 0.033769999
-0.043960001 -0.25889999 -0.27079999
-0.040109999 -0.096280001 -0.36269999
-0.049139999 0.04586 0.098070003
0.035950001 -0.2422 -0.04434
-0.019719999 -0.001269 -0.1084
-0.082649998 -0.087379999 -0.1754
0.054090001 -0.2427 -0.1708
0.03864 -0.2642 -0.30180001
-0.14749999 -0.2121 0.1076
-0.088859998 -0.16500001 0.098180003
0.0030380001 -0.26969999 -0.2446
0.073720001 -0.2194 -0.1268
-0.081500001 -0.19670001 -0.1231
0.045030002 -0.037020002 -0.1814
-0.083690003 -0.17209999 -0.2307
0.081069998 -0.1772 -0.3017
-0.071439996 -0.13779999 -0.3292
0.062519997 -0.2236 -0.045019999
-0.092589997 -0.089599997 -0.1048
-0.07068 -0.073370002 0.01006
0.068750001 -0.20209999 0.064860001
0.02471 -0.0098860003 -0.060770001
0.092940003 -0.13339999 -0.1649
0.048859999 -0.25369999 -0.31810001
-0.079070002 -0.1753 0.1683
0.068640001 -0.2255 -0.32350001
0.0054839998 -0.086000003 0.0036840001
-0.01692 -0.1001 -0.40630001
0.081479996 -0.0072130002 0.023119999
0.092909999 -0.1445 -0.1705
-0.092759997 -0.023080001 0.07
-0.005692 -0.03224 -0.2097
-0.071800001 -0.04425 -0.13150001
0.06741 -0.2253 -0.088660002
0.0057430002 -0.2656 -0.1761
-0.082740001 -0.14579999 -0.27200001
0.02816 -0.25130001 -0.093560003
-0.041560002 -0.091519997 -0.34619999
0.022709999 -0.26519999 -0.23029999
0.079999998 -0.161 -0.31259999
-0.06123 -0.059719998 -0.20379999
0.1019 -0.1009 -0.0118
0.0069459998 5.8000001e-05 -0.066979997
-0.070320003 -0.116 -0.29719999
0.079060003 -0.20029999 -0.050069999
-0.07581 -0.2076 -0.24349999
-0.07638 -0.070179999 -0.1656
0.086400002 -0.1391 -0.2306
0.01045 -0.04008 -0.2388
-0.1805 0.075410001 -0.01083
0.035969999 -0.26350001 -0.31259999
-0.051729999 -0.093039997 -0.3242
-0.01819 -0.088969998 -0.37990001
0.02221 0.0070930002 -0.077189997
-0.055440001 -0.24349999 -0.2123
0.019400001 -0.2545 -0.083339997
-0.0603 -0.1036 -0.3312
-0.095210001 -0.1762 0.1629
-0.069420002 0.0034320001 0.017589999
-0.036559999 -0.25600001 -0.1652
0.03249 -0.0031419999 -0.056510001
-0.030579999 -0.2638 -0.2545
0.0088419998 -0.2701 -0.25830001
-0.03607 -0.024970001 -0.1605
0.019130001 -0.24259999 -0.00053700001
0.073210001 -0.1504 -0.3506
0.075170003 -0.2156 -0.25220001
0.034340002 -0.052439999 -0.2474
-0.083159998 -0.03277 -0.039080001
-0.041820001 0.040750001 0.058600001
-0.030680001 -0.26429999 -0.27059999
-0.094959997 -0.145 0.05926
0.075750001 -0.2104 -0.050299998
-0.14229999 -0.2053 0.1136
0.0055820001 -0.01278 -0.1496
0.01404 -0.2705 -0.24429999
0.04727 -0.022949999 -0.1428
0.0085340003 -0.25830001 -0.1183
-0.062799998 -0.066 -0.2148
-0.01756 -0.074019998 -0.33000001
-0.042819999 -0.25369999 -0.21250001
0.059160002 -0.2432 -0.35080001
0.00024699999 -0.094899997 -0.03861
-0.097429998 -0.1294 -0.045400001
0.056770001 -0.0065740002 -0.062479999
-0.000114 -0.2359 0.054400001
-0.0058229999 -0.26339999 -0.17560001
-0.074749999 -0.12710001 -0.29139999
0.092239998 -0.098130003 -0.1063
-0.01571 -0.27329999 -0.30180001
-0.09753 -0.1389 -0.08292
0.01678 -0.05514 -0.27489999
0.01106 -0.2719 -0.29620001
0.042780001 -0.2351 0.0046080002
-0.054310001 -0.24259999 -0.185
-0.1027 -0.089890003 0.091980003
-0.050379999 -0.04659 -0.2054
0.070909999 -0.1626 -0.36930001
-0.093479998 -0.01122 0.1252
-0.058449998 -0.2089 0.085110001
0.07649 -0.088119999 -0.21789999
-0.09781 -0.13079999 0.090319999
0.071060002 -0.2183 -0.3263
0.099040002 -0.1365 0.075510003
0.04019 -0.048220001 -0.04465
0.085089996 -0.111 -0.1927
-0.1006 -0.112 0.103
0.099100001 -0.1171 -0.039250001
-0.020919999 0.00187 -0.104
-0.066079997 -0.078740001 -0.2438
-0.078160003 -0.2043 -0.1084
-0.005349 -0.26899999 -0.21430001
-0.1013 -0.089659996 0.037250001
0.0462 -0.2247 0.043120001
-0.13680001 -0.21179999 0.1046
-0.000267 -0.02524 -0.06058
-0.0902 -0.1503 -0.1652
0.078900002 -0.2088 -0.1814
0.05773 -0.24600001 -0.2413
-0.0744 -0.21160001 -0.2307
0.032889999 -0.26620001 -0.37279999
-0.056880001 -0.24429999 -0.30590001
0.092649996 -0.1674 -0.099349998
-0.031629998 -0.25830001 -0.16580001
0.080980003 0.000833 0.066129997
0.038290001 -0.087099999 -0.001554
-0.1038 -0.084339999 0.0647
-0.096129999 -0.1548 -0.01733
0.1007 -0.1224 -0.04456
-0.076310001 -0.20290001 -0.02874
0.058309998 -0.2304 -0.071819998
-0.098399997 -0.14049999 0.051890001
-0.0050039999 -0.083350003 0.0061579999
0.078680001 -0.20810001 -0.099480003
-0.051130001 -0.034049999 -0.035470001
-0.074510001 -0.19760001 0.06442
-0.096670002 -0.1388 -0.09928
-0.02208 -0.2441 -0.022679999
-0.075730003 -0.18279999 0.15009999
0.034249999 -0.25510001 -0.1592
0.026450001 -0.2404 0.01506
-0.04758 -0.24699999 -0.1276
-0.060079999 -0.24349999 -0.29260001
-0.1367 -0.20829999 0.1187
-0.051309999 -0.2278 0.01691
-0.0135 -0.016000001 -0.06064
0.049819998 -0.25420001 -0.2525
0.093699999 -0.065180004 -0.046080001
-0.04208 -0.2511 -0.13789999
-0.056559999 -0.1033 -0.33539999
-0.02733 0.0081139999 0.1007
0.01066 -0.2357 0.064379998
-0.085490003 -0.1338 -0.2304
-0.085110001 -0.090510003 -0.1647
-0.05469 0.01339 0.099770002
-0.02379 -0.039269999 -0.227
0.089939997 -0.02887 0.03712
-0.073660001 -0.19419999 -0.3348
0.050299998 -0.05102 -0.22040001
-0.052809998 -0.25220001 -0.3405
-0.038279999 -0.085929997 -0.0061070002
-0.01303 -0.07271 -0.33610001
0.079549998 -0.2005 -0.198
0.095530003 -0.068669997 -0.038910002
0.082960002 -0.04476 -0.06219
-0.05071 -0.23559999 -0.067129999
-0.01567 -0.01682 -0.1639
-0.084449999 -0.1779 -0.2035
-0.092600003 -0.14749999 0.1069
-0.099809997 -0.07418 0.0048699998
-0.06143 -0.1093 -0.3398
0.09262 -0.054219998 -0.01043
0.091689996 -0.1608 -0.1595
-0.038150001 -0.080069996 -0.3281
-0.01354 0.01119 -0.065920003
0.037620001 -0.072729997 -0.30160001
-0.047850002 -0.0054529998 0.099890001
-0.052749999 -0.2463 -0.1763
0.099260002 -0.13860001 0.042629998
0.087889999 -0.17829999 -0.049860001
0.031909999 -0.25440001 -0.1429
-0.053180002 0.042890001 0.097900003
-0.069339998 -0.2236 -0.2429
0.072980002 -0.1002 -0.25279999
-0.0374 -0.080080003 -0.32179999
-0.073760003 -0.13420001 -0.32319999
0.015860001 -0.061779998 -0.30129999
-0.075230002 -0.017589999 -0.028620001
0.098020002 -0.081069998 -0.01344
0.032120001 -0.2274 0.070540003
-0.067910001 -0.1185 -0.3285
0.075070001 0.0027060001 0.02341
0.059080001 -0.2413 -0.236
0.057 -0.24169999 -0.1602
0.0105 -0.26570001 -0.20370001
0.070900001 -0.047290001 -0.13410001
-0.050730001 -0.039439999 -0.035050001
-0.076159999 -0.027380001 -0.06323
0.056990001 -0.060109999 -0.22050001
0.064309999 -0.2253 -0.050489999
-0.098580003 -0.07446 -0.01167
-0.035119999 -0.060059998 -0.04558
-0.07638 -0.20819999 -0.1066
-0.042270001 -0.0086289998 -0.1096
-0.06893 -0.073820002 0.01501
0.037020002 -0.051240001 -0.04614
-0.082110003 -0.029379999 -0.03613
0.064199999 -0.092110001 -0.27869999
-0.070990004 -0.05201 -0.1561
2.2e-05 -0.01282 -0.064769998
0.094630003 -0.1496 -0.1267
-0.075120002 -0.02651 -0.055739999
-0.061980002 -0.0048099998 0.1029
-0.089380004 -0.1723 -0.061069999
-0.056510001 0.02255 0.097630002
-0.03379 -0.036389999 -0.19850001
0.056340002 -0.098609999 -0.3251
0.02894 -0.046399999 -0.2366
0.070019998 -0.2102 -0.3786
0.1988 0.07361 -0.0086249998
0.000325 -0.25839999 -0.1143
0.096419998 -0.1399 0.070260003
0.071460001 -0.1665 -0.3673
-0.076980002 -0.14049999 -0.31040001
0.1141 0.078129999 0.02
0.042300001 -0.22939999 0.04236
-0.087399997 -0.1645 -0.19580001
-0.016039999 -0.05632 -0.28470001
0.034630001 -0.084040001 -0.3461
-0.098459996 -0.077090003 0.001619
-0.005781 -0.264 -0.18189999
-0.054060001 -0.2476 -0.28290001
-0.082029998 -0.1042 -0.2009
-0.047430001 -0.23469999 -0.017659999
-0.042800002 -0.2102 0.14309999
-0.029130001 -0.0306 -0.1944
-0.01688 0.000201 -0.1056
0.032499999 -0.1055 -0.40279999
-0.043900002 -0.24969999 -0.1684
0.05587 0.028279999 0.059300002
-0.032809999 0.1004 0.1004
0.047740001 -0.2577 -0.31810001
-0.080980003 -0.048730001 -0.082999997
-0.080090001 -0.2006 -0.1212
-0.0047089998 0.004826 -0.1032
-0.1039 0.108 0.067840002
0.068960004 -0.2238 -0.14309999
-0.087810002 -0.063720003 -0.071929999
-0.071280003 -0.2218 -0.1065
0.035250001 -0.2274 0.075170003
0.0072980002 -0.04417 -0.055709999
-0.072860003 -0.21619999 -0.15360001
-0.13169999 -0.2033 0.1171
-0.072300002 -0.070940003 -0.1973
0.067890003 -0.22920001 -0.1486
0.070809998 -0.20469999 0.053470001
-0.061140001 0.037160002 0.1132
0.062789999 -0.042989999 -0.1587
0.01173 -0.2685 -0.2413
0.084550001 -0.050609998 -0.066909999
0.061250001 -0.2262 -0.031160001
-0.048760001 -0.089129999 -0.01122
-0.037980001 0.040130001 0.05869
-0.0528 -0.2129 0.1025
-0.02856 -0.034170002 -0.1988
-0.042619999 -0.083659999 -0.3215
-0.075719997 -0.081119999 -0.1926
0.045340002 -0.02297 -0.1392
-0.094599999 -0.1749 0.1531
0.020780001 -0.02902 -0.058169998
0.04501 -0.25999999 -0.32359999
0.067330003 -0.2175 -0.0066069998
0.0059930002 -0.02382 -0.062089998
0.1245 0.082479998 0.0091970004
-0.081490003 -0.092179999 -0.1816
-0.060120001 0.018540001 0.098499998
-0.093560003 -0.1732 0.14749999
-0.083729997 -0.16680001 0.13060001
-0.08664 -0.0072070002 0.08653
0.085259996 -0.044569999 -0.04524
-0.028170001 -0.26699999 -0.30160001
-0.08337 0.083470002 0.053059999
-0.042259999 -0.25260001 -0.1602
-0.087630004 -0.15889999 0.1296
0.033009999 0.046629999 0.063620001
0.08461 -0.074419998 -0.1372
0.01173 -0.074239999 -0.33489999
-0.071050003 -0.2198 -0.2392
-0.082790002 -0.074369997 -0.1479
0.092380002 -0.1362 -0.1496
0.079240002 -0.022879999 -0.02328
-0.082149997 -0.1116 -0.2271
0.064960003 0.01328 0.01406
-0.03932 -0.2165 0.1148
-0.076269999 -0.1868 0.093269996
-0.09245 -0.05266 -0.022879999
-0.06679 -0.22679999 -0.14669999
0.044300001 -0.25929999 -0.27430001
-0.04552 -0.24339999 -0.081529997
0.022600001 -0.02854 -0.1883
0.05452 -0.24160001 -0.1621
-0.0078670001 0.0036770001 -0.1065
0.059640002 -0.057720002 -0.2052
-0.036959998 -0.083470002 -0.3326
0.049219999 -0.081129998 0.02025
-0.080629997 -0.1674 0.1794
-0.083219998 -0.1785 0.065810002
-0.082649998 0.00063800003 0.077979997
-0.1532 -0.20919999 0.1064
-0.0504 -0.072410002 -0.2789
0.07096 -0.1954 0.1108
-0.082039997 -0.2005 -0.1234
0.01191 -0.2361 0.04899
-0.088770002 -0.1657 0.061190002
0.065399997 -0.029519999 -0.1162
-0.099459998 -0.13150001 0.088119999
0.05455 -0.09488 -0.32960001
-0.080190003 -0.08839 -0.182
-0.063670002 -0.037950002 -0.01497
-0.09821 -0.090899996 -0.02571
-0.058290001 -0.031959999 -0.1428
0.079089999 -0.19499999 0.01018
-0.040010002 -0.25139999 -0.1593
0.01054 -0.072690003 -0.33750001
0.082050003 -0.02256 -0.01843
-0.061020002 -0.1365 -0.39989999
-0.046390001 -0.25060001 -0.1688
0.042720001 -0.2146 0.1171
0.0792 -0.0039980002 0.021430001
-0.086999997 -0.078489996 -0.126
0.082290001 -0.12630001 -0.25330001
-0.093429998 -0.1461 0.14830001
-0.075209998 -0.028860001 -0.061349999
0.070519999 -0.047759999 -0.1366
0.07638 -0.2088 -0.1046
